ply
format ascii 1.0
element vertex 1264
property float x
property float y
property float z
property uchar red
property uchar green
property uchar blue
end_header
30.8307 -41.6785 32.3623  255 255 255
30.0448 -41.4547 32.0478  255 255 255
21.2266 -38.5718 29.6305  255 255 255
21.3508 -38.5523 29.1237  255 255 255
11.763 -35.295 24.2288  255 255 255
21.0053 -38.8696 30.053  255 255 255
37.3172 -44.0236 31.2574  255 255 255
39.0143 -44.5229 30.5425  255 255 255
32.6232 -42.8758 31.1766  255 255 255
32.4705 -42.8553 31.6129  255 255 255
35.6877 -43.8076 31.6961  255 255 255
11.8995 -35.9556 24.7444  255 255 255
12.7102 -36.3036 25.0655  255 255 255
39.9048 -45.2289 31.0766  255 255 255
40.4438 -45.2878 30.0258  255 255 255
11.4454 -36.0821 24.5135  255 255 255
20.6538 -39.5339 30.7527  255 255 255
12.6224 -36.5995 24.6683  255 255 255
12.263 -36.5791 24.6502  255 255 255
19.3821 -39.2393 29.8179  255 255 255
23.9371 -40.8348 31.6033  255 255 255
23.163 -40.674 32.2989  255 255 255
34.444 -44.2484 31.9208  255 255 255
26.5312 -41.9022 32.2286  255 255 255
26.5218 -41.8989 32.2384  255 255 255
13.8918 -37.5057 26.1271  255 255 255
12.806 -37.1925 25.9254  255 255 255
13.8657 -37.6398 26.5096  255 255 255
12.3963 -37.1873 26.2152  255 255 255
35.3812 -44.8647 32.6197  255 255 255
27.3814 -42.3832 32.3038  255 255 255
13.2473 -37.9239 26.5656  255 255 255
24.5718 -41.8605 31.662  255 255 255
25.3133 -42.1454 31.741  255 255 255
25.306 -42.1482 31.7558  255 255 255
32.9329 -44.5594 32.2529  255 255 255
24.3223 -41.9121 31.5425  255 255 255
32.7233 -45.1338 33.0961  255 255 255
34.1764 -45.8085 34.1363  255 255 255
34.0759 -45.7938 34.3579  255 255 255
14.4338 -39.2759 27.7006  255 255 255
17.8919 -40.6033 28.8836  255 255 255
31.0619 -45.1568 33.192  255 255 255
40.4461 -47.8928 27.3236  255 255 255
39.6458 -47.6536 27.3035  255 255 255
13.4863 -39.4874 26.9205  255 255 255
17.6644 -41.0604 29.4672  255 255 255
29.8142 -45.2528 32.9509  255 255 255
26.8251 -44.258 32.3825  255 255 255
14.4469 -40.1195 28.7104  255 255 255
16.2074 -40.7291 29.4162  255 255 255
28.4813 -44.8526 33.3715  255 255 255
30.8209 -45.7008 32.9421  255 255 255
19.6392 -42.0439 30.8258  255 255 255
28.912 -45.2518 33.1937  255 255 255
18.2335 -41.6804 30.1819  255 255 255
20.7924 -42.5415 31.1333  255 255 255
28.0343 -44.9812 33.1637  255 255 255
14.5812 -40.524 29.2357  255 255 255
24.732 -43.9841 33.1454  255 255 255
14.0171 -40.409 29.1874  255 255 255
29.3968 -45.6898 33.8502  255 255 255
30.764 -46.2296 32.7447  255 255 255
25.729 -44.7398 33.0411  255 255 255
26.1695 -45.0134 33.8133  255 255 255
21.0346 -43.3013 32.1143  255 255 255
23.9854 -44.2289 33.6765  255 255 255
29.099 -46.0761 32.9092  255 255 255
21.6698 -43.7303 32.1904  255 255 255
21.1284 -43.5415 32.0554  255 255 255
24.1952 -44.703 33.1012  255 255 255
23.3484 -44.4561 33.4725  255 255 255
31.5223 -47.0576 31.7418  255 255 255
36.1054 -48.739 28.5365  255 255 255
35.938 -48.7015 28.9116  255 255 255
19.9032 -43.6806 32.4546  255 255 255
29.8148 -47.0781 32.0802  255 255 255
29.8129 -47.0701 32.0867  255 255 255
40.7702 -50.7312 24.704  255 255 255
22.5199 -45.0498 32.1723  255 255 255
40.3182 -50.6515 25.2601  255 255 255
23.0223 -45.2546 32.282  255 255 255
28.2404 -47.0939 31.7464  255 255 255
28.059 -47.0524 32.253  255 255 255
28.7953 -47.3622 32.4481  255 255 255
23.6358 -45.6928 32.1763  255 255 255
29.1739 -47.6897 31.071  255 255 255
38.6355 -50.7646 25.2781  255 255 255
23.7113 -46.1932 31.7268  255 255 255
24.1718 -46.4372 31.1455  255 255 255
28.2561 -47.8035 32.0209  255 255 255
16.5596 -43.962 27.8444  255 255 255
26.3209 -47.822 31.8792  255 255 255
22.4593 -46.5349 31.308  255 255 255
23.6329 -47.1767 31.1232  255 255 255
30.6913 -49.6442 29.5786  255 255 255
30.6108 -49.9248 29.9552  255 255 255
25.8643 -48.3876 30.7539  255 255 255
25.9769 -48.5102 30.6122  255 255 255
30.6319 -50.2623 29.5532  255 255 255
23.7813 -48.0225 30.0655  255 255 255
30.0269 -50.5967 29.2954  255 255 255
29.9228 -50.5613 29.576  255 255 255
29.073 -50.3957 29.0396  255 255 255
22.139 -48.3814 28.9789  255 255 255
21.7265 -48.3588 28.7997  255 255 255
16.5917 -47.0337 25.9311  255 255 255
16.6864 -47.2734 26.6879  255 255 255
22.9133 -49.386 29.2137  255 255 255
33.2661 -53.0199 26.2029  255 255 255
32.1054 -52.5946 27.1859  255 255 255
23.0579 -49.6621 28.0058  255 255 255
31.2082 -52.563 27.2472  255 255 255
22.7843 -49.7346 28.8609  255 255 255
15.5832 -47.4209 26.3608  255 255 255
18.8718 -49.3514 26.0129  255 255 255
15.0352 -48.1696 23.4495  255 255 255
18.8301 -49.6248 24.243  255 255 255
21.5504 -50.7753 26.6587  255 255 255
13.2279 -48.7879 20.8072  255 255 255
32.6537 -56.7948 26.9677  255 255 255
12.0465 -51.3044 22.0062  255 255 255
-3.86028 -46.6007 13.9594  255 255 255
-3.4304 -46.8377 14.3522  255 255 255
25.5838 -56.4603 27.4599  255 255 255
26.554 -56.9279 27.4534  255 255 255
24.4752 -56.2859 28.058  255 255 255
24.9032 -56.5315 27.9237  255 255 255
24.8084 -56.893 26.7831  255 255 255
24.4398 -56.739 27.3858  255 255 255
23.0187 -56.5977 26.5282  255 255 255
24.8716 -57.337 26.8391  255 255 255
24.8017 -57.2874 27.0774  255 255 255
18.9202 -55.5056 25.9347  255 255 255
1.78479 -50.3093 17.4268  255 255 255
1.61847 -50.3361 16.8379  255 255 255
38.9242 -63.2507 29.4651  255 255 255
4.57336 -52.5484 21.1002  255 255 255
9.43705 -54.4614 22.0013  255 255 255
9.77067 -54.699 23.0096  255 255 255
10.1574 -54.822 23.1148  255 255 255
12.3498 -56.1496 24.9866  255 255 255
6.44302 -54.8873 22.4634  255 255 255
34.655 -64.5504 31.1032  255 255 255
34.5939 -64.5141 31.1865  255 255 255
30.0514 -63.2325 28.8981  255 255 255
29.5828 -63.1369 29.8322  255 255 255
28.2425 -62.8746 29.4587  255 255 255
36.7306 -66.382 32.9441  255 255 255
39.081 -67.458 34.3278  255 255 255
6.78217 -56.765 23.6755  255 255 255
28.157 -63.9644 30.5213  255 255 255
5.18125 -56.2854 23.5257  255 255 255
5.17434 -56.2383 23.7937  255 255 255
12.1883 -58.5827 26.5704  255 255 255
5.89736 -56.5359 24.5255  255 255 255
12.0098 -58.8409 25.7311  255 255 255
34.0493 -66.1401 33.8114  255 255 255
36.8369 -67.3446 35.1421  255 255 255
33.4414 -66.647 32.8642  255 255 255
5.81663 -57.3789 25.3452  255 255 255
34.001 -67.331 34.1919  255 255 255
35.1384 -67.8279 34.2292  255 255 255
15.187 -61.0843 27.4292  255 255 255
-0.766461 -55.9239 23.9546  255 255 255
36.2967 -68.5995 35.8109  255 255 255
34.116 -68.3269 34.1848  255 255 255
11.3164 -60.4642 27.876  255 255 255
26.7126 -65.9081 32.2801  255 255 255
26.5135 -66.1985 32.9507  255 255 255
-1.81705 -56.5952 24.8832  255 255 255
5.36426 -59.1402 27.1033  255 255 255
21.8061 -64.9028 32.4405  255 255 255
33.2871 -69.6149 36.9063  255 255 255
26.5733 -67.7893 34.3164  255 255 255
27.2009 -68.26 35.9081  255 255 255
20.6464 -68.0012 34.6547  255 255 255
6.21791 -63.6639 30.6651  255 255 255
12.2352 -65.6617 33.1269  255 255 255
12.0205 -65.6428 33.7851  255 255 255
21.9763 30.9151 -15.3507  255 255 255
22.0051 30.9709 -15.4653  255 255 255
70.8968 40.7466 -45.6116  255 255 255
65.113 11.0585 6.57325  255 255 255
55.1582 35.8051 -38.7814  255 255 255
68.9351 37.5555 -46.6211  255 255 255
68.0286 7.07423 9.08148  255 255 255
47.0534 32.9468 -33.6345  255 255 255
65.4478 35.8029 -46.0677  255 255 255
65.003 8.53694 3.05727  255 255 255
75.2416 37.015 -53.6948  255 255 255
43.7255 31.102 -33.7109  255 255 255
63.5819 -1.47115 20.3463  255 255 255
74.5985 35.2564 -53.2947  255 255 255
65.6782 6.33025 4.24649  255 255 255
43.406 30.5626 -35.2243  255 255 255
35.1521 28.5813 -28.914  255 255 255
62.9141 8.93889 -0.768639  255 255 255
62.3487 -1.97359 19.731  255 255 255
50.3684 30.6264 -40.1535  255 255 255
62.2129 -1.97786 18.3289  255 255 255
45.1895 28.4083 -36.5186  255 255 255
63.285 7.63034 -2.59242  255 255 255
58.3383 30.2087 -46.0124  255 255 255
26.7619 25.3736 -25.4015  255 255 255
61.8505 8.49244 -4.43311  255 255 255
67.0245 3.00496 4.77587  255 255 255
76.0295 32.0714 -57.9091  255 255 255
66.5382 -7.13732 24.4441  255 255 255
72.6834 31.356 -55.7957  255 255 255
70.4688 30.2007 -53.783  255 255 255
31.2504 24.4128 -27.538  255 255 255
15.7388 22.3417 -18.3365  255 255 255
64.0751 -5.15911 20.1094  255 255 255
64.0687 -5.16069 20.138  255 255 255
62.5561 29.4323 -49.9166  255 255 255
43.9145 25.847 -37.5512  255 255 255
63.7891 5.11849 -2.34279  255 255 255
27.2316 22.9713 -27.7843  255 255 255
18.7213 21.3259 -21.3716  255 255 255
62.7374 -5.03734 16.9746  255 255 255
56.0557 26.4185 -46.5229  255 255 255
62.1455 -4.23929 15.4093  255 255 255
37.1864 23.9263 -34.6075  255 255 255
62.5096 -5.48838 17.4478  255 255 255
64.0728 -6.57396 18.9445  255 255 255
61.0195 26.3141 -50.232  255 255 255
57.9169 25.249 -48.7619  255 255 255
55.6714 24.5171 -46.9898  255 255 255
56.7786 24.839 -48.4068  255 255 255
62.3619 3.96343 -5.76139  255 255 255
56.0951 24.3149 -47.8503  255 255 255
55.9926 24.8468 -48.5944  255 255 255
56.3904 24.399 -48.0687  255 255 255
63.9061 -8.56082 18.7831  255 255 255
61.5932 -5.89416 13.6987  255 255 255
66.0983 -9.8776 20.7969  255 255 255
58.5019 23.3669 -49.9267  255 255 255
64.338 -8.93541 18.4058  255 255 255
64.0339 -9.10632 18.7018  255 255 255
64.606 -9.83171 19.9879  255 255 255
66.6696 24.1133 -56.7522  255 255 255
63.2976 -9.19801 18.2607  255 255 255
45.7872 21.1858 -42.2733  255 255 255
26.1511 19.1845 -29.4656  255 255 255
62.3536 -7.2691 14.0321  255 255 255
61.9839 23.4138 -55.4041  255 255 255
64.3294 -9.6904 17.7006  255 255 255
64.6921 -10.0762 18.062  255 255 255
65.7168 -11.0736 19.7266  255 255 255
65.3864 -10.812 19.1246  255 255 255
64.3239 -10.2284 17.322  255 255 255
62.8806 1.10687 -8.23033  255 255 255
20.0032 17.2442 -26.8104  255 255 255
49.7157 19.9619 -46.6362  255 255 255
31.3458 18.5815 -35.6563  255 255 255
67.1691 -5.03504 0.257241  255 255 255
26.3971 16.7554 -32.4675  255 255 255
64.4745 -11.6951 16.3783  255 255 255
62.1463 -10.0829 12.4163  255 255 255
61.1042 -9.45848 10.8691  255 255 255
64.2397 -12.2052 15.3893  255 255 255
37.9241 16.2353 -41.0571  255 255 255
64.1853 -12.5816 15.1324  255 255 255
26.514 15.4467 -34.6754  255 255 255
62.936 -11.4485 12.3907  255 255 255
62.6965 -11.5719 12.6492  255 255 255
64.5339 -13.125 15.3276  255 255 255
64.5058 -13.1491 15.3684  255 255 255
36.7506 15.0302 -40.5716  255 255 255
63.7656 -12.9115 14.3138  255 255 255
63.8723 -13.5401 14.9735  255 255 255
65.1635 -5.13904 -6.82165  255 255 255
74.6075 13.3398 -58.2767  255 255 255
65.0826 -5.60796 -6.12536  255 255 255
50.8404 15.8963 -53.1105  255 255 255
14.964 12.482 -25.8418  255 255 255
14.9814 12.4523 -25.8043  255 255 255
62.7578 -13.0075 12.242  255 255 255
24.2518 12.7566 -33.0583  255 255 255
46.8625 14.3395 -49.9485  255 255 255
16.3945 11.9549 -28.8863  255 255 255
63.426 -5.28375 -10.1667  255 255 255
16.9397 11.2625 -28.4455  255 255 255
16.8983 11.0273 -27.868  255 255 255
61.259 -12.6743 8.24852  255 255 255
60.575 -12.8504 8.39886  255 255 255
16.244 10.5723 -29.7912  255 255 255
13.9816 9.80037 -28.4703  255 255 255
16.6138 8.46833 -27.01  255 255 255
21.902 9.23272 -34.8828  255 255 255
22.9679 9.48072 -36.6805  255 255 255
60.9504 -14.4497 5.63393  255 255 255
21.3439 9.50673 -36.6441  255 255 255
63.0226 -15.6845 7.7979  255 255 255
60.6235 -6.12499 -17.6213  255 255 255
65.1821 -18.4753 13.2582  255 255 255
63.7346 -17.4449 9.95632  255 255 255
63.8556 -17.6277 10.2033  255 255 255
64.2289 -18.1393 10.4456  255 255 255
64.4541 -18.4073 11.0041  255 255 255
62.1868 -8.85226 -16.0049  255 255 255
63.5737 -10.4231 -13.2948  255 255 255
63.9177 -18.5071 9.22363  255 255 255
60.8306 -16.5021 5.23788  255 255 255
63.1968 -18.3516 8.64243  255 255 255
63.112 -19.0752 10.2609  255 255 255
61.8689 -8.91779 -20.0386  255 255 255
61.7505 -8.9908 -19.7589  255 255 255
66.9474 -21.6425 14.2744  255 255 255
24.2016 6.05584 -39.9585  255 255 255
64.4991 -19.9949 10.1332  255 255 255
65.238 -13.4091 -10.2478  255 255 255
60.4938 -8.80104 -21.4663  255 255 255
60.8175 -9.4152 -20.2922  255 255 255
17.6214 5.10484 -35.8359  255 255 255
40.2224 -0.639741 -37.3613  255 255 255
25.7588 4.45246 -43.0339  255 255 255
61.2977 -11.3118 -21.6824  255 255 255
39.6052 -1.34499 -37.1825  255 255 255
63.8109 -21.5255 8.0709  255 255 255
64.1492 -21.7804 8.05249  255 255 255
37.2995 -0.844353 -38.747  255 255 255
37.2803 -0.865598 -38.6542  255 255 255
12.4848 2.95974 -32.8615  255 255 255
12.1392 3.09793 -33.379  255 255 255
11.9793 2.92263 -32.6807  255 255 255
61.0179 -11.6643 -23.4032  255 255 255
65.2607 -23.1132 10.047  255 255 255
61.0122 -12.1486 -22.1106  255 255 255
11.2197 3.15584 -34.4357  255 255 255
30.9115 -3.26782 -35.695  255 255 255
65.4124 -17.3764 -16.0346  255 255 255
61.7354 -21.4788 0.580224  255 255 255
63.5856 -24.2821 5.18334  255 255 255
63.7645 -24.2285 4.85948  255 255 255
13.1217 0.0516346 -36.9297  255 255 255
50.2353 -11.9206 -28.0713  255 255 255
63.5848 -25.1994 5.16296  255 255 255
62.4952 -24.8317 3.89591  255 255 255
32.5751 -9.31096 -28.7231  255 255 255
30.8266 -8.55031 -30.2614  255 255 255
32.0681 -9.56645 -29.3537  255 255 255
31.4222 -9.76775 -28.2119  255 255 255
65.0812 -27.566 6.18043  255 255 255
68.1433 -30.1037 11.2026  255 255 255
60.9075 -24.7004 -2.94477  255 255 255
61.2054 -24.5623 -3.78896  255 255 255
15.7288 -6.20068 -31.1326  255 255 255
28.1465 -10.4288 -28.049  255 255 255
25.655 -23.6668 23.9152  255 255 255
26.3408 -11.0261 -26.5121  255 255 255
65.2552 -28.9392 4.47252  255 255 255
26.6876 -12.0023 -25.4164  255 255 255
68.1768 -31.8085 10.5176  255 255 255
68.7971 -31.6602 9.76396  255 255 255
29.3107 -13.2066 -24.2506  255 255 255
63.6118 -28.0608 -0.387693  255 255 255
62.2554 -27.1437 -3.71017  255 255 255
22.8015 -24.0903 23.8422  255 255 255
64.8386 -29.8999 2.44177  255 255 255
62.606 -29.1491 -2.47291  255 255 255
20.7793 -13.4756 -22.9123  255 255 255
67.0641 -32.8071 6.94888  255 255 255
67.1539 -32.8641 6.54703  255 255 255
67.1403 -32.8554 6.49884  255 255 255
68.5036 -33.7002 8.61144  255 255 255
68.2669 -33.7433 8.90906  255 255 255
69.11 -34.5704 9.68526  255 255 255
63.0674 -30.7009 -2.55068  255 255 255
21.7543 -26.1887 25.0503  255 255 255
17.974 -14.9899 -20.9904  255 255 255
21.2156 -26.4423 25.3548  255 255 255
63.3292 -31.6871 -2.26844  255 255 255
62.8176 -31.5179 -2.53908  255 255 255
68.7055 -35.5864 7.53751  255 255 255
67.3341 -35.1813 6.42391  255 255 255
68.4045 -35.7223 5.08984  255 255 255
19.3727 -24.7098 14.6246  255 255 255
19.2186 -24.7992 15.2781  255 255 255
67.3364 -36.074 6.48388  255 255 255
19.0735 -24.8158 14.693  255 255 255
19.279 -24.9745 15.0017  255 255 255
32.6429 -32.3299 31.5475  255 255 255
16.2382 -17.9057 -18.1994  255 255 255
16.7236 -24.3232 11.1542  255 255 255
66.9121 -36.4519 2.86847  255 255 255
25.5131 -31.0118 31.0146  255 255 255
17.9115 -26.4348 16.9179  255 255 255
17.7929 -26.6186 17.1388  255 255 255
29.9937 -32.807 31.329  255 255 255
17.0662 -26.515 16.7634  255 255 255
14.8491 -25.0591 12.0364  255 255 255
68.6507 -38.5784 5.63201  255 255 255
26.4519 -31.9435 30.9229  255 255 255
68.9767 -38.2921 2.59848  255 255 255
46.6518 -35.8019 20.7608  255 255 255
23.2993 -31.1289 29.98  255 255 255
34.2635 -34.5406 31.4497  255 255 255
28.3956 -33.0534 31.5403  255 255 255
33.0837 -34.4104 31.3481  255 255 255
69.2248 -39.7914 6.28094  255 255 255
32.9857 -34.585 31.6112  255 255 255
30.5195 -33.9823 31.8932  255 255 255
23.2061 -32.2755 31.2353  255 255 255
13.5341 -26.9568 14.3955  255 255 255
25.8996 -33.5624 31.7699  255 255 255
16.9934 -28.9664 19.51  255 255 255
68.3684 -41.1529 5.06184  255 255 255
24.6319 -33.3317 31.267  255 255 255
24.712 -33.5128 32.0142  255 255 255
25.1129 -33.6609 31.8207  255 255 255
16.5091 -29.3111 20.347  255 255 255
14.5688 -28.277 16.2506  255 255 255
14.3118 -28.4355 16.6709  255 255 255
24.6423 -33.6899 30.8104  255 255 255
24.493 -33.7388 31.3007  255 255 255
33.0901 -36.2521 31.4726  255 255 255
33.1249 -36.5971 31.2786  255 255 255
12.5537 -28.6359 15.6462  255 255 255
16.1138 -31.2739 22.1243  255 255 255
17.9986 -32.3533 25.7325  255 255 255
17.5111 -32.3094 25.6092  255 255 255
17.3647 -31.9967 23.2506  255 255 255
21.4467 -34.5352 29.9145  255 255 255
15.1313 -31.8782 22.9522  255 255 255
17.8888 -33.4577 25.8945  255 255 255
17.8856 -33.4465 25.8842  255 255 255
21.6807 -35.0582 29.6759  255 255 255
32.3279 -38.4492 31.1529  255 255 255
22.2026 -35.5278 30.7325  255 255 255
37.9517 -40.0179 29.9455  255 255 255
12.2413 -31.1547 19.8125  255 255 255
13.3562 -31.7536 20.1463  255 255 255
17.1241 -33.8109 24.946  255 255 255
22.7866 -36.3669 31.3392  255 255 255
18.6685 -34.6886 27.4879  255 255 255
32.5753 -39.2337 30.7704  255 255 255
30.8667 -39.0041 31.6643  255 255 255
22.9722 -36.5343 30.4818  255 255 255
17.2105 -34.2155 25.6284  255 255 255
17.1463 -34.4652 25.2864  255 255 255
20.8789 -36.1106 28.5193  255 255 255
27.7627 -38.5964 31.0783  255 255 255
14.7498 -33.8828 23.0417  255 255 255
28.7069 -39.6429 30.7986  255 255 255
26.5853 -39.4737 31.8451  255 255 255
21.1242 -37.6509 29.6729  255 255 255
8.50687 -30.3276 -4.11275  255 255 255
25.972 -39.8409 31.0841  255 255 255
20.4419 -38.032 28.6555  255 255 255
11.4065 -34.7972 23.5393  255 255 255
32.3496 -42.0945 32.5598  255 255 255
38.0295 -43.724 31.3563  255 255 255
29.6284 -41.5705 32.7372  255 255 255
21.7956 -39.0283 30.1295  255 255 255
40.0716 -44.7781 31.2752  255 255 255
18.6105 -37.8941 28.2324  255 255 255
21.4185 -39.1135 30.5187  255 255 255
23.8543 -40.1548 31.2712  255 255 255
26.5963 -41.2331 32.8779  255 255 255
11.3444 -35.8252 23.9104  255 255 255
32.3492 -43.0008 31.5751  255 255 255
24.7478 -40.7079 31.2499  255 255 255
40.1464 -45.4666 30.309  255 255 255
32.6147 -43.2407 31.4178  255 255 255
39.0176 -45.2396 30.275  255 255 255
20.6296 -39.663 30.5997  255 255 255
26.0012 -41.6783 32.1703  255 255 255
13.6909 -37.4717 26.3829  255 255 255
18.6352 -39.2881 29.047  255 255 255
5.56873 -33.2509 -1.52967  255 255 255
23.9747 -41.5615 31.5561  255 255 255
39.3798 -46.4752 28.2597  255 255 255
33.8949 -45.2612 34.2159  255 255 255
33.7996 -45.491 33.3996  255 255 255
34.184 -45.5866 33.0567  255 255 255
38.4792 -46.8447 28.4529  255 255 255
13.7563 -39.3687 27.4707  255 255 255
15.5933 -40.433 29.2407  255 255 255
17.6037 -41.5106 30.2844  255 255 255
24.8924 -43.9702 32.1094  255 255 255
22.0999 -43.3838 32.4248  255 255 255
29.445 -45.8219 33.4504  255 255 255
17.662 -41.9655 30.5691  255 255 255
31.2509 -46.9079 32.0988  255 255 255
21.8256 -44.0092 32.8033  255 255 255
30.9205 -47.1878 31.8737  255 255 255
37.5953 -49.2776 27.6052  255 255 255
14.8397 -41.9359 27.7513  255 255 255
30.3151 -47.2118 32.3404  255 255 255
38.2912 -49.665 26.0577  255 255 255
19.8057 -43.9642 32.918  255 255 255
29.1861 -47.1186 31.3349  255 255 255
30.8469 -47.7905 31.2699  255 255 255
33.1269 -48.7088 30.4173  255 255 255
21.994 -45.7011 30.7709  255 255 255
17.8127 -44.3506 29.2108  255 255 255
22.175 -45.9036 31.327  255 255 255
21.6011 -45.7623 31.1887  255 255 255
21.6324 -45.7725 31.158  255 255 255
23.6087 -47.0389 30.8129  255 255 255
23.7369 -47.0752 30.2845  255 255 255
28.9232 -48.8611 30.4447  255 255 255
20.9004 -46.2825 30.2745  255 255 255
12.6544 -43.9865 22.2636  255 255 255
19.0194 -46.4825 28.578  255 255 255
14.2116 -44.8672 25.6359  255 255 255
30.0348 -50.3579 29.7591  255 255 255
29.8469 -50.4361 29.8483  255 255 255
14.1035 -45.1286 25.8345  255 255 255
14.4523 -45.3634 24.587  255 255 255
30.4729 -50.7773 29.5274  255 255 255
12.9486 -44.9195 22.0404  255 255 255
22.8707 -48.5426 29.1726  255 255 255
22.2755 -48.4202 29.0241  255 255 255
16.5307 -46.6475 26.0193  255 255 255
16.5237 -46.6293 26.0901  255 255 255
29.446 -51.0818 29.0351  255 255 255
-2.67215 -40.757 7.42481  255 255 255
33.1108 -52.669 27.8969  255 255 255
22.1059 -49.0348 28.3934  255 255 255
18.6007 -47.9532 26.8254  255 255 255
28.5767 -51.6349 28.0414  255 255 255
23.8186 -50.0814 28.7464  255 255 255
-1.2026 -42.2146 8.61893  255 255 255
16.8294 -48.1214 25.4783  255 255 255
16.8328 -48.114 25.4855  255 255 255
23.0017 -50.2202 28.2066  255 255 255
28.2607 -52.3219 27.6069  255 255 255
33.8971 -55.1243 24.8719  255 255 255
20.7904 -50.6507 26.2447  255 255 255
15.2265 -49.1045 22.3119  255 255 255
25.1706 -53.1886 26.5503  255 255 255
25.6473 -53.8167 26.4564  255 255 255
27.7056 -54.7576 28.4142  255 255 255
20.406 -52.6342 24.7821  255 255 255
12.8318 -50.689 23.5478  255 255 255
11.8353 -50.6463 22.6383  255 255 255
25.3641 -55.3722 29.2649  255 255 255
-0.169787 -47.7303 15.4332  255 255 255
18.2165 -53.7121 27.1231  255 255 255
-3.44624 -47.1967 13.9658  255 255 255
24.9778 -56.4822 27.3744  255 255 255
25.1178 -56.5905 27.9897  255 255 255
24.0335 -56.5196 26.8688  255 255 255
18.2096 -54.9068 25.6147  255 255 255
25.2346 -57.2578 28.3057  255 255 255
25.3374 -57.5889 27.1164  255 255 255
18.6363 -55.6028 25.4614  255 255 255
18.0079 -55.3967 25.4483  255 255 255
18.3559 -55.4899 25.7399  255 255 255
18.3803 -55.5108 25.6497  255 255 255
38.9978 -63.4367 29.6133  255 255 255
10.0289 -54.7843 22.5116  255 255 255
36.0462 -63.8163 30.2388  255 255 255
35.2223 -63.6401 30.3853  255 255 255
22.5217 -59.904 28.2749  255 255 255
2.94076 -53.7747 21.6017  255 255 255
6.06274 -55.6715 23.3514  255 255 255
35.0418 -65.9969 32.7888  255 255 255
3.0481 -55.1757 22.995  255 255 255
5.40169 -56.2802 23.6724  255 255 255
38.4574 -67.9215 34.5186  255 255 255
4.83047 -56.4706 24.0238  255 255 255
28.5245 -64.7082 31.7948  255 255 255
36.1491 -67.4476 34.4915  255 255 255
34.7292 -67.5013 34.5734  255 255 255
31.2077 -66.6373 32.522  255 255 255
35.0595 -67.8763 34.8738  255 255 255
24.2993 -64.2837 30.8541  255 255 255
29.1308 -66.4302 33.3232  255 255 255
29.7303 -66.7907 33.4118  255 255 255
28.3269 -66.6269 33.3354  255 255 255
28.3802 -66.633 33.2944  255 255 255
33.8177 -68.5343 35.4815  255 255 255
32.5302 -68.1937 35.5832  255 255 255
25.696 -65.9487 33.1533  255 255 255
32.1946 -68.2062 35.7337  255 255 255
25.7463 -66.0054 33.6256  255 255 255
11.8298 -61.5553 29.1093  255 255 255
19.8644 -64.326 31.7398  255 255 255
32.7029 -68.6806 36.2465  255 255 255
28.3485 -67.5001 33.6656  255 255 255
6.06164 -59.6035 27.7625  255 255 255
10.6325 -61.5084 29.5017  255 255 255
11.1918 -61.9996 29.3469  255 255 255
11.6948 -62.1007 29.4743  255 255 255
29.9337 -68.5097 35.754  255 255 255
24.8771 -66.9581 34.5874  255 255 255
18.0277 -64.9085 31.2111  255 255 255
33.1427 -70.174 36.9998  255 255 255
18.4019 -66.9396 34.1336  255 255 255
20.3921 -67.8565 34.2101  255 255 255
14.3961 -65.5656 33.9653  255 255 255
7.78015 -65.1501 33.3811  255 255 255
25.8877 32.7324 -17.2019  255 255 255
72.0343 43.2607 -46.8788  255 255 255
70.8436 41.8491 -45.4391  255 255 255
19.9914 30.4856 -13.8515  255 255 255
63.2126 13.2785 3.56847  255 255 255
37.5812 33.3887 -25.807  255 255 255
66.0307 10.0807 7.17189  255 255 255
74.4679 40.2084 -49.2539  255 255 255
95.9145 44.3113 -63.1118  255 255 255
96.2842 44.3491 -63.3699  255 255 255
56.6381 36.5823 -39.115  255 255 255
66.3851 9.00236 7.40833  255 255 255
94.9972 43.4962 -63.3879  255 255 255
49.6912 32.0094 -36.1907  255 255 255
19.4522 26.2051 -17.5102  255 255 255
25.3248 27.3645 -22.2301  255 255 255
20.2716 25.8377 -18.5928  255 255 255
85.7499 36.6124 -59.7064  255 255 255
63.0791 -1.75094 20.1011  255 255 255
58.1888 32.1665 -43.8338  255 255 255
58.1377 32.1192 -43.7303  255 255 255
67.0436 33.7853 -50.0425  255 255 255
82.7366 36.2933 -60.3067  255 255 255
68.0219 33.756 -51.0121  255 255 255
66.8974 33.1358 -49.8717  255 255 255
65.1504 -4.50426 23.4418  255 255 255
67.0869 -6.16687 26.2221  255 255 255
66.994 -7.22028 26.7944  255 255 255
67.5056 3.04417 6.04993  255 255 255
49.7485 29.3966 -40.1664  255 255 255
63.382 6.00895 1.18788  255 255 255
64.4753 -4.80585 21.1885  255 255 255
17.9063 23.1643 -19.4027  255 255 255
26.4615 24.0489 -24.7722  255 255 255
64.7855 30.1996 -51.0309  255 255 255
28.5697 23.8955 -26.6967  255 255 255
62.2586 -3.76893 17.3819  255 255 255
68.3277 30.0165 -54.0286  255 255 255
28.3147 22.85 -25.1063  255 255 255
66.212 2.14453 2.38106  255 255 255
66.5924 1.79057 3.06175  255 255 255
66.2133 1.55233 3.56992  255 255 255
48.7251 26.9237 -42.2863  255 255 255
42.671 25.4046 -38.1602  255 255 255
42.5029 24.8882 -37.1954  255 255 255
63.8534 28.0091 -51.8767  255 255 255
67.9001 28.3725 -54.0626  255 255 255
58.8862 27.4375 -48.9715  255 255 255
64.6127 -7.04807 20.3138  255 255 255
66.2428 28.1115 -53.9116  255 255 255
66.1225 27.9973 -53.4986  255 255 255
59.4076 27.3698 -49.9324  255 255 255
50.5582 25.4905 -43.4475  255 255 255
29.7117 22.2648 -29.6175  255 255 255
29.7838 22.4224 -29.8686  255 255 255
16.0799 20.3089 -20.2616  255 255 255
59.9111 25.8866 -49.6488  255 255 255
64.9185 -8.05435 19.025  255 255 255
34.8263 21.731 -33.4891  255 255 255
45.5839 23.7244 -41.9534  255 255 255
23.5748 20.6697 -27.0945  255 255 255
61.9352 25.5101 -52.9945  255 255 255
64.6408 -8.07956 18.5569  255 255 255
31.5863 20.6484 -32.0966  255 255 255
39.2343 20.4617 -38.7616  255 255 255
37.5517 20.8622 -38.9907  255 255 255
41.693 20.7074 -40.6463  255 255 255
64.726 -10.8471 17.9137  255 255 255
43.8452 19.1906 -41.8004  255 255 255
44.2394 19.0655 -42.2518  255 255 255
62.7278 0.0639133 -8.21168  255 255 255
24.7973 17.3192 -30.9532  255 255 255
48.0273 19.7126 -47.3533  255 255 255
39.3259 17.3619 -39.6679  255 255 255
45.9642 18.491 -47.6939  255 255 255
46.8585 17.841 -47.7614  255 255 255
30.7982 16.2866 -36.3124  255 255 255
30.0079 15.4475 -34.7435  255 255 255
63.5565 -11.8224 14.1346  255 255 255
67.5519 -6.22201 -1.8043  255 255 255
45.8078 17.2362 -48.8338  255 255 255
18.471 14.1636 -27.9148  255 255 255
62.7521 -11.4093 12.1599  255 255 255
63.5952 -12.2365 13.6156  255 255 255
64.0484 -12.6887 14.4471  255 255 255
67.052 -16.03 19.5224  255 255 255
63.1082 -12.9695 13.1388  255 255 255
64.3358 -15.0333 14.0706  255 255 255
62.5957 -13.2129 10.3812  255 255 255
19.296 11.1609 -31.4212  255 255 255
18.3272 10.7827 -29.7421  255 255 255
66.1156 -9.32255 -5.0148  255 255 255
66.2281 -9.59368 -4.65631  255 255 255
15.912 10.2615 -29.6193  255 255 255
62.789 -6.13058 -13.2649  255 255 255
21.3959 10.2777 -35.2991  255 255 255
21.206 10.0059 -34.4665  255 255 255
64.2312 -16.7519 11.9473  255 255 255
61.5369 -15.1479 7.93331  255 255 255
60.8829 -5.05883 -19.8652  255 255 255
64.3621 -17.6948 11.6524  255 255 255
64.3537 -17.6961 11.6728  255 255 255
62.2617 -16.3871 7.98851  255 255 255
61.0654 -8.62116 -16.4832  255 255 255
65.5512 -12.9799 -10.1129  255 255 255
65.974 -21.0281 12.4913  255 255 255
17.679 5.15638 -34.0197  255 255 255
65.6763 -21.9584 13.6618  255 255 255
60.8172 -9.25537 -21.1759  255 255 255
60.494 -9.63122 -20.9604  255 255 255
62.1558 -19.1602 5.54785  255 255 255
65.6659 -21.5078 10.5888  255 255 255
62.2498 -19.6129 5.76193  255 255 255
66.9068 -23.6541 14.4508  255 255 255
62.6027 -20.8457 6.74871  255 255 255
22.9013 3.52107 -42.225  255 255 255
12.3416 3.05662 -34.2974  255 255 255
33.4319 -0.635724 -38.2957  255 255 255
40.1098 -3.40331 -36.5668  255 255 255
24.4213 1.07691 -39.1388  255 255 255
31.1476 -1.76298 -38.0688  255 255 255
37.3611 -6.44512 -32.7512  255 255 255
66.0176 -26.2989 10.3928  255 255 255
31.9974 -5.97295 -31.9172  255 255 255
38.0294 -7.5911 -31.1379  255 255 255
68.433 -28.1061 13.5585  255 255 255
36.808 -7.9825 -30.0939  255 255 255
36.0366 -7.61089 -30.9963  255 255 255
65.5354 -26.1071 7.7097  255 255 255
28.2356 -5.71659 -32.5209  255 255 255
67.0599 -28.4632 10.9515  255 255 255
61.6381 -24.229 0.326048  255 255 255
28.4112 -7.37904 -31.2738  255 255 255
60.924 -23.8645 -0.812007  255 255 255
65.9787 -27.6435 8.0569  255 255 255
34.6172 -25.2006 24.3456  255 255 255
34.4011 -25.4729 25.3735  255 255 255
64.064 -27.0153 2.92845  255 255 255
34.7181 -27.2992 28.2418  255 255 255
26.2781 -11.4532 -26.565  255 255 255
63.6277 -28.0578 1.65668  255 255 255
68.8922 -32.3732 11.8231  255 255 255
68.2186 -32.0788 11.0012  255 255 255
36.7811 -28.4398 27.2843  255 255 255
63.331 -28.4767 -2.22281  255 255 255
19.2075 -11.7012 -25.5268  255 255 255
22.8787 -25.1015 25.5415  255 255 255
66.6643 -32.6553 5.42905  255 255 255
31.9556 -29.3567 29.808  255 255 255
62.195 -29.2684 -5.01775  255 255 255
32.363 -29.9893 30.4885  255 255 255
67.9141 -33.8321 6.07664  255 255 255
46.4866 -30.7252 16.2771  255 255 255
67.3811 -33.83 4.43066  255 255 255
36.7085 -31.7347 29.4595  255 255 255
67.927 -35.1563 6.69043  255 255 255
21.036 -27.0734 25.5558  255 255 255
20.0474 -16.9745 -20.1337  255 255 255
68.5385 -35.9034 7.4097  255 255 255
33.234 -31.6013 30.8247  255 255 255
68.5061 -36.4624 8.3155  255 255 255
21.7948 -28.8348 28.1529  255 255 255
33.4046 -32.8281 31.4504  255 255 255
28.8747 -31.7124 31.7681  255 255 255
69.1574 -38.5083 7.41219  255 255 255
28.6986 -32.5513 32.6675  255 255 255
69.5575 -38.7668 7.01667  255 255 255
26.7221 -32.1771 31.5307  255 255 255
16.889 -27.0933 16.8834  255 255 255
30.1109 -33.7262 32.0176  255 255 255
14.8372 -20.9984 -15.6854  255 255 255
22.1221 -31.2986 29.5563  255 255 255
45.3875 -37.2719 23.5493  255 255 255
36.8043 -35.834 28.8257  255 255 255
13.6384 -27.9122 16.5724  255 255 255
36.7352 -36.6135 29.3397  255 255 255
44.948 -38.1551 24.3074  255 255 255
24.9849 -33.8173 31.7492  255 255 255
19.4852 -31.646 27.2439  255 255 255
24.3925 -33.9591 31.5127  255 255 255
24.4567 -34.1132 31.8274  255 255 255
37.5951 -37.7066 28.4686  255 255 255
13.2723 -24.509 -11.6442  255 255 255
13.3247 -24.4611 -11.9212  255 255 255
13.5501 -29.6025 18.2581  255 255 255
13.7954 -29.9591 18.6982  255 255 255
14.1688 -25.8167 -9.91929  255 255 255
35.2353 -38.1197 30.3974  255 255 255
43.237 -40.1087 27.1401  255 255 255
18.7822 -33.0637 26.89  255 255 255
35.0052 -38.2981 30.4754  255 255 255
15.6516 -31.5438 22.3026  255 255 255
25.2078 -35.7079 31.5028  255 255 255
31.0253 -37.4345 31.9657  255 255 255
17.7669 -32.705 24.9817  255 255 255
17.663 -33.1023 25.7011  255 255 255
38.6372 -39.8064 29.8461  255 255 255
28.1106 -37.9588 33.0563  255 255 255
20.7171 -35.1937 28.8201  255 255 255
19.4241 -34.9421 28.8189  255 255 255
24.2456 -36.8514 31.1194  255 255 255
22.3843 -36.6811 30.1984  255 255 255
16.1301 -34.201 25.117  255 255 255
28.587 -38.7668 31.9353  255 255 255
23.2559 -37.1789 30.993  255 255 255
19.9034 -35.8627 28.2615  255 255 255
15.8939 -34.7307 25.8775  255 255 255
16.8138 -34.9368 25.6048  255 255 255
19.7894 -36.1755 28.1383  255 255 255
14.4019 -34.0188 23.2839  255 255 255
21.3886 -36.9522 29.4648  255 255 255
38.1971 -43.4496 31.335  255 255 255
19.1945 -38.0092 29.0127  255 255 255
13.0646 -35.8836 24.2946  255 255 255
27.8315 -41.485 32.2419  255 255 255
27.3756 -41.4205 32.1421  255 255 255
11.0779 -36.0557 23.9639  255 255 255
24.0791 -40.8784 32.4531  255 255 255
13.5398 -37.0866 25.4395  255 255 255
25.7907 -41.9888 31.5917  255 255 255
12.2559 -37.8479 24.6214  255 255 255
29.0888 -44.6913 32.9125  255 255 255
12.6791 -39.1609 24.8301  255 255 255
13.8994 -40.0605 29.6464  255 255 255
25.6944 -44.7969 32.9099  255 255 255
25.4266 -44.7366 33.8093  255 255 255
28.3507 -45.7434 33.9173  255 255 255
31.3506 -47.2001 31.9479  255 255 255
32.1183 -47.8171 32.0442  255 255 255
18.6996 -43.4409 30.8163  255 255 255
17.9759 -44.3481 29.2233  255 255 255
23.4149 -46.4143 31.2378  255 255 255
20.8709 -46.4273 30.0028  255 255 255
26.5466 -48.4311 31.1221  255 255 255
32.8908 -50.7814 28.6868  255 255 255
30.7874 -50.183 29.0521  255 255 255
20.332 -47.2623 29.2748  255 255 255
30.259 -50.5649 29.2968  255 255 255
30.3948 -50.6181 28.9462  255 255 255
16.4865 -46.8089 26.349  255 255 255
-2.16769 -40.9747 7.32599  255 255 255
16.0761 -47.151 24.8188  255 255 255
22.5717 -49.4129 28.6125  255 255 255
14.8131 -47.9668 23.254  255 255 255
18.1246 -49.2357 25.2677  255 255 255
26.8311 -52.7771 28.223  255 255 255
14.6697 -48.7837 23.5547  255 255 255
20.8295 -51.1259 26.1245  255 255 255
0.641306 -46.8675 13.5023  255 255 255
-0.665945 -47.0069 14.6126  255 255 255
-0.741907 -47.1946 14.2719  255 255 255
24.8355 -57.4684 26.9307  255 255 255
23.5979 -58.2192 27.3001  255 255 255
2.12456 -51.4117 18.1156  255 255 255
2.92561 -51.7736 19.4856  255 255 255
-0.777922 -51.4554 17.809  255 255 255
32.7349 -63.0717 30.0899  255 255 255
5.45521 -54.3743 22.2737  255 255 255
39.7672 -66.4651 33.1956  255 255 255
7.94409 -56.4352 23.0943  255 255 255
8.11726 -56.6481 23.022  255 255 255
2.71085 -54.8701 22.9172  255 255 255
2.18443 -55.1169 22.7474  255 255 255
32.4872 -66.5025 33.657  255 255 255
11.8832 -59.5837 27.7696  255 255 255
14.172 -61.7449 30.5492  255 255 255
14.3214 -61.8132 30.1404  255 255 255
36.015 -69.7161 36.6339  255 255 255
34.6087 -69.9017 35.114  255 255 255
31.4753 -68.6053 35.8352  255 255 255
6.56498 -60.242 27.6849  255 255 255
24.3594 -66.8718 33.9238  255 255 255
7.1171 -60.9488 28.7619  255 255 255
8.86057 -62.6169 29.7511  255 255 255
5.00525 -61.6925 29.8668  255 255 255
16.7347 -66.2604 33.7438  255 255 255
6.72291 -63.0632 30.9032  255 255 255
14.1376 -66.0391 34.0788  255 255 255
14.1706 -66.1622 33.7266  255 255 255
13.6367 -65.9364 34.2013  255 255 255
13.7225 -66.1576 33.6432  255 255 255
8.27991 -64.8257 32.5061  255 255 255
51.2856 37.7309 -32.9232  255 255 255
59.3592 39.5998 -37.8767  255 255 255
62.2399 13.8111 3.16593  255 255 255
60.5379 38.319 -39.8471  255 255 255
60.4508 38.3915 -39.9529  255 255 255
75.4132 40.9853 -48.8455  255 255 255
75.0012 40.2919 -49.2918  255 255 255
95.5215 44.232 -63.4603  255 255 255
55.1977 34.9406 -38.4142  255 255 255
65.4082 9.50099 4.35246  255 255 255
67.8328 36.9372 -47.1212  255 255 255
68.2387 36.6239 -47.5242  255 255 255
68.6311 36.1414 -48.7463  255 255 255
82.3635 37.5441 -57.228  255 255 255
63.4477 -2.40789 21.7698  255 255 255
38.4452 28.9637 -30.9954  255 255 255
79.5179 35.5568 -58.026  255 255 255
69.4594 33.4702 -51.0996  255 255 255
62.2672 -1.55145 18.5402  255 255 255
60.001 31.8814 -46.5862  255 255 255
63.9941 7.10517 -0.0479308  255 255 255
66.5634 -6.36187 25.4393  255 255 255
66.2234 -6.54839 25.7646  255 255 255
61.2146 30.3032 -47.5049  255 255 255
71.3649 31.0283 -54.7465  255 255 255
66.6038 -7.49282 23.7125  255 255 255
51.9879 27.9787 -44.1743  255 255 255
61.8006 6.12613 -6.15928  255 255 255
39.8264 23.5506 -36.0514  255 255 255
20.8604 20.5731 -24.3646  255 255 255
46.1431 21.7107 -42.4005  255 255 255
46.2703 21.8625 -42.8312  255 255 255
65.7235 -10.3191 20.146  255 255 255
62.5983 0.933621 -6.77638  255 255 255
25.2589 18.8103 -30.5243  255 255 255
48.9935 19.821 -45.6275  255 255 255
49.1526 19.3085 -46.697  255 255 255
29.275 17.1422 -33.0737  255 255 255
65.8931 -12.7661 18.8353  255 255 255
44.8661 18.4234 -45.7857  255 255 255
45.4139 17.5409 -45.3556  255 255 255
45.6148 18.399 -46.5526  255 255 255
35.2363 15.7321 -35.7937  255 255 255
67.4558 -5.7997 -1.13774  255 255 255
26.0331 14.6983 -32.3496  255 255 255
46.4751 16.93 -48.679  255 255 255
25.0934 14.0776 -33.3156  255 255 255
50.1835 16.369 -51.644  255 255 255
50.3423 16.5309 -52.0914  255 255 255
55.6333 15.9876 -57.412  255 255 255
23.7075 12.9125 -33.6525  255 255 255
63.0023 -13.2883 11.9482  255 255 255
66.3308 -17.9281 16.3347  255 255 255
57.9544 0.882304 -42.1825  255 255 255
18.4809 6.90964 -34.6113  255 255 255
61.9387 -16.6577 4.47745  255 255 255
65.1285 -13.1364 -12.4978  255 255 255
24.9634 6.03713 -42.7044  255 255 255
22.0345 4.13314 -41.4548  255 255 255
65.6301 -23.4087 10.4055  255 255 255
67.8469 -25.588 14.1641  255 255 255
37.3814 -5.66439 -33.8723  255 255 255
31.8908 -5.80418 -33.195  255 255 255
30.7341 -7.229 -31.2848  255 255 255
61.5554 -24.3202 1.14668  255 255 255
62.8505 -24.9321 2.3546  255 255 255
64.074 -25.9548 4.19031  255 255 255
63.4497 -25.6736 3.46621  255 255 255
63.5469 -25.6779 3.2831  255 255 255
67.5982 -28.949 11.2768  255 255 255
30.0195 -12.8549 -24.7646  255 255 255
34.407 -26.8315 25.5648  255 255 255
61.4311 -26.5246 -3.55505  255 255 255
68.7076 -32.1143 11.2901  255 255 255
34.6769 -28.2146 28.7451  255 255 255
62.7142 -28.6287 -3.16552  255 255 255
62.4061 -28.6588 -2.76253  255 255 255
46.5575 -30.7411 16.0787  255 255 255
69.1053 -34.8276 8.09984  255 255 255
61.7739 -30.7319 -5.03634  255 255 255
31.2047 -30.5607 30.8497  255 255 255
37.2707 -32.0857 28.7498  255 255 255
65.6318 -34.3637 -0.338812  255 255 255
64.9948 -34.4086 0.789235  255 255 255
68.4884 -36.8006 7.68014  255 255 255
20.208 -27.5971 25.5555  255 255 255
68.2103 -36.8812 5.5403  255 255 255
32.8118 -32.8622 31.2081  255 255 255
37.2817 -33.6789 28.7304  255 255 255
64.704 -35.1329 -1.44655  255 255 255
36.2307 -33.738 30.2056  255 255 255
29.5626 -33.3223 32.2886  255 255 255
23.9271 -31.7189 30.4349  255 255 255
15.9262 -27.5302 17.7783  255 255 255
12.8307 -25.9427 13.3972  255 255 255
15.296 -27.2416 14.8072  255 255 255
12.4316 -21.0924 -16.04  255 255 255
17.5692 -29.924 23.3134  255 255 255
31.1738 -36.1102 32.1005  255 255 255
24.1087 -34.5127 31.7871  255 255 255
16.066 -30.6868 21.8049  255 255 255
37.774 -37.9142 27.8478  255 255 255
22.6318 -34.0583 30.2792  255 255 255
17.6079 -32.3889 24.5204  255 255 255
61.1124 -42.1684 3.82872  255 255 255
28.2608 -37.1173 31.9425  255 255 255
12.675 -31.176 19.378  255 255 255
18.3432 -34.5142 26.6227  255 255 255
27.5409 -38.0801 32.4539  255 255 255
59.7912 -44.0733 5.05547  255 255 255
21.8954 -36.124 29.7364  255 255 255
41.782 -41.9834 28.5548  255 255 255
16.4531 -34.3463 25.7705  255 255 255
36.9517 -41.0794 30.3595  255 255 255
16.6853 -34.7655 26.1779  255 255 255
27.5789 -39.2945 31.3314  255 255 255
20.4388 -37.4958 28.6214  255 255 255
21.8808 -38.3359 30.1149  255 255 255
18.4955 -37.3587 27.9803  255 255 255
39.4309 -44.2739 30.6226  255 255 255
24.519 -41.4 31.5832  255 255 255
28.9397 -42.8344 31.9573  255 255 255
31.1596 -44.4621 32.831  255 255 255
11.2426 -38.2356 22.436  255 255 255
12.814 -39.0858 25.5102  255 255 255
14.1513 -40.1487 29.3328  255 255 255
23.7381 -43.6533 31.7004  255 255 255
21.6823 -43.5486 32.5734  255 255 255
37.9468 -49.1264 26.8412  255 255 255
17.9942 -42.875 30.5096  255 255 255
14.711 -42.3377 26.9647  255 255 255
37.6662 -50.5902 26.0031  255 255 255
37.726 -50.5888 25.9063  255 255 255
19.5477 -46.6666 29.2036  255 255 255
25.7323 -48.9604 32.4025  255 255 255
17.8068 -46.2766 27.3693  255 255 255
15.2768 -45.639 25.1868  255 255 255
13.1223 -45.1634 21.6474  255 255 255
30.5806 -51.1736 28.9054  255 255 255
30.6619 -51.2024 28.6891  255 255 255
29.1726 -50.8065 28.6155  255 255 255
28.8812 -51.085 28.7135  255 255 255
28.8705 -51.083 28.7371  255 255 255
33.6669 -52.9042 27.2526  255 255 255
16.8089 -47.6945 25.8064  255 255 255
21.7286 -50.2683 27.155  255 255 255
-0.65586 -43.7648 9.83953  255 255 255
-0.660049 -43.7 11.247  255 255 255
0.869171 -48.562 16.4236  255 255 255
24.8584 -56.9813 26.8885  255 255 255
25.943 -57.7562 26.6863  255 255 255
34.2973 -62.8718 29.0172  255 255 255
5.25129 -54.6061 22.0918  255 255 255
7.27673 -57.5146 25.4649  255 255 255
29.9097 -65.252 32.3615  255 255 255
30.7005 -67.9341 34.8507  255 255 255
9.95492 -61.2182 29.1662  255 255 255
10.2149 -61.4374 29.6327  255 255 255
13.0604 -66.4946 35.3846  255 255 255
8.40754 -65.1415 33.9281  255 255 255
66.8316 13.9999 6.48746  255 255 255
86.1222 45.6823 -54.4032  255 255 255
45.2572 36.4097 -29.1036  255 255 255
45.3972 36.6342 -29.4431  255 255 255
72.4118 41.2187 -45.7618  255 255 255
61.8133 15.4093 1.30523  255 255 255
58.6832 38.5518 -38.8826  255 255 255
28.2445 31.3144 -20.267  255 255 255
62.9625 13.1429 1.60211  255 255 255
65.2132 0.455512 22.6757  255 255 255
23.7444 28.0094 -18.8285  255 255 255
66.924 35.6752 -47.96  255 255 255
66.8689 35.6078 -47.803  255 255 255
24.7859 24.9082 -23.4855  255 255 255
37.7889 26.5941 -31.812  255 255 255
70.3008 31.2441 -53.4312  255 255 255
64.5216 -5.54417 20.498  255 255 255
51.9045 26.433 -43.4989  255 255 255
60.4437 25.0344 -49.2502  255 255 255
60.621 25.1638 -49.5031  255 255 255
46.6359 23.7128 -42.3323  255 255 255
52.2607 23.9952 -45.7774  255 255 255
56.9037 23.4071 -48.4824  255 255 255
65.4851 -10.5074 19.5327  255 255 255
29.0394 18.9585 -31.2533  255 255 255
29.0317 19.1116 -31.6823  255 255 255
32.9642 16.6349 -36.1231  255 255 255
64.9332 -12.6818 16.6973  255 255 255
64.8578 -12.7252 16.7713  255 255 255
17.8172 14.4592 -26.8127  255 255 255
61.5974 -10.1734 10.2409  255 255 255
65.2078 -5.36862 -6.85091  255 255 255
61.4712 -2.98504 -11.5365  255 255 255
70.1438 11.168 -53.3247  255 255 255
71.2388 11.7921 -55.8766  255 255 255
63.7457 -14.1282 13.7801  255 255 255
20.6454 11.5726 -31.3783  255 255 255
17.9928 11.5892 -30.4028  255 255 255
66.0422 -8.85095 -5.48626  255 255 255
61.0648 -5.57327 -18.1234  255 255 255
62.4179 -8.69643 -14.4085  255 255 255
62.393 -8.33408 -16.2314  255 255 255
62.0896 -16.7645 7.60246  255 255 255
64.0345 -11.6795 -14.263  255 255 255
65.0912 -14.1805 -14.2801  255 255 255
65.7981 -14.8681 -15.7403  255 255 255
64.7167 -21.354 4.84015  255 255 255
62.6362 -13.2298 -20.0267  255 255 255
65.0827 -15.4998 -15.282  255 255 255
63.325 -13.868 -20.1274  255 255 255
62.6866 -14.1468 -19.6327  255 255 255
12.849 1.81114 -34.8899  255 255 255
47.0269 -6.76188 -33.2593  255 255 255
63.9003 -23.1182 7.01513  255 255 255
19.0142 1.50578 -39.4183  255 255 255
38.5681 -7.80824 -32.3683  255 255 255
68.5213 -28.2992 13.7859  255 255 255
34.9067 -8.50048 -30.0129  255 255 255
32.6223 -10.7838 -27.2484  255 255 255
63.1081 -26.6007 0.371718  255 255 255
68.8731 -31.7875 12.1264  255 255 255
65.339 -31.2424 4.9026  255 255 255
68.0984 -33.946 6.86471  255 255 255
23.8769 -28.6777 29.2273  255 255 255
68.7072 -36.3594 6.42288  255 255 255
28.7882 -30.9557 31.343  255 255 255
68.6116 -36.5731 3.44348  255 255 255
18.8301 -27.3042 23.2521  255 255 255
64.8964 -35.5393 -0.749672  255 255 255
14.5792 -19.0964 -17.0429  255 255 255
69.0525 -38.5346 4.98454  255 255 255
29.396 -33.5063 32.0392  255 255 255
69.1036 -39.8048 5.67421  255 255 255
10.7609 -20.6067 -15.371  255 255 255
29.1593 -35.3039 32.2205  255 255 255
13.7423 -24.3326 -11.7097  255 255 255
21.2697 -34.5457 29.5622  255 255 255
16.8507 -33.6946 25.1545  255 255 255
23.2261 -36.3683 30.7723  255 255 255
31.0045 -38.8179 31.4744  255 255 255
20.3705 -35.6056 28.8313  255 255 255
27.7907 -38.4602 31.5699  255 255 255
25.6358 -37.8839 31.3098  255 255 255
17.97 -36.1897 27.3086  255 255 255
18.6652 -36.5223 27.2342  255 255 255
24.3595 -38.6763 30.6233  255 255 255
19.0859 -37.3248 28.4723  255 255 255
27.9027 -41.2798 32.5901  255 255 255
24.8981 -40.3688 31.0514  255 255 255
21.1513 -39.1272 29.517  255 255 255
17.7941 -40.5109 28.7541  255 255 255
17.4276 -40.6696 29.2494  255 255 255
17.4297 -40.6711 29.2108  255 255 255
36.7013 -50.3489 27.3188  255 255 255
38.2356 -50.9726 25.2067  255 255 255
36.1919 -50.481 26.809  255 255 255
23.0353 -46.4902 30.9456  255 255 255
26.279 -49.5464 30.0093  255 255 255
17.4838 -48.0183 26.2387  255 255 255
31.7342 -53.0082 26.9208  255 255 255
33.823 -54.8896 28.3478  255 255 255
1.42709 -44.4216 11.4726  255 255 255
25.9743 -52.8167 28.1495  255 255 255
-2.0568 -45.5027 12.3634  255 255 255
18.9156 -52.6912 25.3433  255 255 255
0.684075 -47.3372 13.3185  255 255 255
-2.19391 -47.3141 14.466  255 255 255
2.18079 -50.7306 18.2814  255 255 255
6.0735 -54.0621 21.5946  255 255 255
1.44303 -53.0913 20.2644  255 255 255
4.20118 -54.2963 21.7088  255 255 255
2.02746 -54.9609 24.1622  255 255 255
12.2642 -58.9478 26.2785  255 255 255
5.52853 -57.4591 25.477  255 255 255
10.4175 -59.4503 27.1568  255 255 255
34.6221 -69.1873 36.0818  255 255 255
7.89065 -61.8983 30.236  255 255 255
6.65008 -63.4832 31.2647  255 255 255
13.3519 -65.6813 34.096  255 255 255
13.0687 -66.0865 33.5762  255 255 255
7.68716 -64.6475 32.3029  255 255 255
12.9797 -66.3106 34.6427  255 255 255
8.0331 -64.8909 33.4842  255 255 255
62.2356 15.2779 2.53994  255 255 255
74.6859 40.6778 -52.7116  255 255 255
62.9529 1.2751 21.35  255 255 255
26.7848 29.7052 -20.0328  255 255 255
70.4777 36.4846 -49.5866  255 255 255
67.8951 -3.6602 26.0785  255 255 255
66.9747 -5.55067 27.3617  255 255 255
64.529 8.13724 1.67002  255 255 255
77.6222 35.7739 -56.3722  255 255 255
75.301 31.1981 -58.5828  255 255 255
17.7214 22.5222 -20.8915  255 255 255
79.5816 30.5197 -61.4744  255 255 255
80.2818 31.1085 -62.9061  255 255 255
57.6412 23.5592 -48.7803  255 255 255
64.5894 -10.7738 17.2427  255 255 255
23.6305 17.3718 -29.6245  255 255 255
43.554 18.1134 -42.8859  255 255 255
43.5644 18.0629 -43.0246  255 255 255
64.0019 -12.252 14.708  255 255 255
24.2281 14.1501 -33.5403  255 255 255
66.7952 -8.04066 -5.1607  255 255 255
66.2948 -8.28141 -4.4113  255 255 255
19.8717 8.97924 -34.5308  255 255 255
63.6056 -8.74232 -14.2589  255 255 255
63.8811 -19.7665 9.28487  255 255 255
64.0756 -13.0948 -15.2009  255 255 255
67.9558 -26.285 13.6057  255 255 255
64.6001 -16.79 -17.3996  255 255 255
31.1701 -5.55494 -32.6672  255 255 255
37.1326 -11.2889 -27.3207  255 255 255
63.4926 -28.532 0.464889  255 255 255
64.4529 -29.6443 0.532327  255 255 255
34.0235 -29.2702 29.3094  255 255 255
34.0257 -29.236 28.2552  255 255 255
65.3724 -32.3366 1.02642  255 255 255
32.6594 -31.0868 30.5424  255 255 255
67.6743 -34.7353 4.71292  255 255 255
26.3531 -29.8697 30.9272  255 255 255
69.943 -37.7792 6.01697  255 255 255
31.4283 -33.2002 31.8665  255 255 255
14.9182 -20.422 -16.0516  255 255 255
34.0816 -35.8462 31.2528  255 255 255
23.5996 -32.8654 30.5473  255 255 255
32.8335 -36.1265 31.6101  255 255 255
31.3796 -36.9634 31.7688  255 255 255
15.7412 -31.3701 21.9368  255 255 255
15.7545 -33.8252 24.8449  255 255 255
14.0899 -32.8612 20.3638  255 255 255
14.1734 -32.8738 20.3528  255 255 255
31.2101 -39.3618 31.2443  255 255 255
31.1739 -39.3675 31.3322  255 255 255
17.5905 -35.0441 26.4795  255 255 255
18.6562 -35.8483 27.6424  255 255 255
18.2632 -35.5701 26.333  255 255 255
21.3167 -37.114 29.3969  255 255 255
30.0923 -39.9909 30.5598  255 255 255
18.0204 -37.8076 28.793  255 255 255
21.5599 -39.0086 30.1916  255 255 255
28.8047 -42.111 31.9443  255 255 255
37.9942 -45.4154 31.019  255 255 255
18.8994 -40.3384 29.8206  255 255 255
34.2899 -45.8186 33.4314  255 255 255
12.7422 -38.6816 25.2499  255 255 255
20.0657 -41.4536 30.3495  255 255 255
24.909 -43.4582 31.2164  255 255 255
33.7218 -47.0568 31.6048  255 255 255
14.786 -41.3581 28.2295  255 255 255
33.0134 -49.6729 29.4075  255 255 255
37.8613 -51.7048 24.4554  255 255 255
-0.0782293 -41.8483 8.61131  255 255 255
0.00126885 -41.95 8.46572  255 255 255
21.9954 -50.6817 26.8472  255 255 255
-1.61641 -43.4242 10.5616  255 255 255
20.6754 -52.3607 25.637  255 255 255
6.23765 -54.4381 22.0757  255 255 255
3.26485 -54.0238 21.2201  255 255 255
37.9658 -66.9958 33.5395  255 255 255
23.8889 -64.437 30.8589  255 255 255
35.9008 -69.1079 36.4797  255 255 255
24.7032 -66.346 33.4819  255 255 255
26.2999 -68.8867 37.1608  255 255 255
11.3063 -65.2625 33.3004  255 255 255
64.7786 9.55395 2.61302  255 255 255
78.6812 35.2938 -56.9096  255 255 255
14.0864 12.9697 -24.7081  255 255 255
63.3533 -6.32912 -11.6626  255 255 255
21.9665 9.10064 -36.4193  255 255 255
38.8464 -7.12946 -32.5633  255 255 255
28.0227 -33.8817 31.9499  255 255 255
17.2073 -29.3069 21.8268  255 255 255
17.4951 -31.8878 25.2688  255 255 255
20.539 -33.6475 29.6146  255 255 255
21.7972 -35.3688 29.7727  255 255 255
22.5138 -38.4487 30.1343  255 255 255
34.1121 -44.5868 31.8659  255 255 255
31.1573 -44.1683 34.0814  255 255 255
20.3744 -41.6827 30.5091  255 255 255
17.4594 -40.9952 29.4568  255 255 255
33.3435 -47.4952 30.958  255 255 255
23.9834 -48.3686 29.9092  255 255 255
12.7109 -45.8906 22.1041  255 255 255
15.2273 -47.7807 23.0826  255 255 255
2.92162 -51.4922 18.4969  255 255 255
