ply
format ascii 1.0
element vertex 1242
property float x
property float y
property float z
property uchar red
property uchar green
property uchar blue
end_header
66.3667 -0.391315 -0.436604  255 255 255
60.5211 -12.6643 40.9238  255 255 255
-33.1289 5.65688 -14.2315  255 255 255
6.83514 6.80764 -23.6721  255 255 255
-14.1516 4.46774 -11.757  255 255 255
-23.5873 1.92331 -7.73813  255 255 255
17.2664 7.07939 -28.1917  255 255 255
-70.5846 18.7139 -53.853  255 255 255
1.30879 6.28367 -21.0648  255 255 255
10.3394 7.2733 -27.3017  255 255 255
-30.0213 2.78381 -10.1312  255 255 255
-30.8358 4.40327 -15.2684  255 255 255
69.7463 -10.5043 27.5565  255 255 255
-22.3828 1.33385 -8.6751  255 255 255
-2.86142 5.33113 -19.7282  255 255 255
-5.50495 2.99538 -17.3295  255 255 255
-11.5643 2.29331 -11.4347  255 255 255
62.6467 -6.61943 14.7086  255 255 255
59.5123 -11.6265 28.0917  255 255 255
65.11 -8.98307 18.2036  255 255 255
-2.1342 2.63772 -20.0767  255 255 255
-4.3366 4.56748 -26.1343  255 255 255
-1.05111 1.74777 -14.5941  255 255 255
64.5117 -2.75992 -5.86151  255 255 255
-30.4012 0.53857 -13.6832  255 255 255
-13.2878 -2.64388 -2.62932  255 255 255
-16.6642 1.45943 -15.0375  255 255 255
-23.7773 -0.838667 -8.66453  255 255 255
-21.3663 -2.53461 -4.25649  255 255 255
-23.4453 -1.45535 -6.31437  255 255 255
63.6609 -8.54994 15.0096  255 255 255
-51.0921 8.98799 -39.5938  255 255 255
-13.0219 1.13987 -18.148  255 255 255
-24.6223 -0.13585 -8.87342  255 255 255
-36.104 3.95706 -24.9198  255 255 255
-2.95745 -0.726417 -10.2049  255 255 255
-20.0825 0.351714 -13.2968  255 255 255
-20.8083 0.896608 -11.5653  255 255 255
-21.6902 -0.457332 -10.3058  255 255 255
-18.9109 -0.0155858 -14.1294  255 255 255
-24.2373 -1.29601 -9.09738  255 255 255
-23.6899 -0.565398 -8.83159  255 255 255
-24.4387 -1.00213 -9.96339  255 255 255
64.4221 -11.124 18.3295  255 255 255
-10.0927 -3.82944 -2.41475  255 255 255
-7.97698 0.811541 -20.0904  255 255 255
64.8528 -9.72033 17.189  255 255 255
69.3484 -12.5278 26.2644  255 255 255
1.264 -7.07044 4.27534  255 255 255
-13.2977 -1.3811 -15.9446  255 255 255
-17.3208 -0.901674 -14.8822  255 255 255
-21.1927 -4.67173 -2.49246  255 255 255
69.2485 -12.7725 24.6509  255 255 255
69.1734 -13.5168 25.0801  255 255 255
65.6354 -11.4687 18.0893  255 255 255
-12.1086 -4.07121 -11.1964  255 255 255
-23.572 -4.16632 -4.96874  255 255 255
-51.2362 4.94823 -37.8048  255 255 255
-19.3966 -2.20891 -14.9535  255 255 255
-7.26485 -2.16422 -22.2087  255 255 255
-24.0835 -4.01991 -11.6995  255 255 255
-23.8155 -3.0668 -11.6029  255 255 255
-15.3178 -1.32906 -19.0743  255 255 255
-22.6433 -4.84205 -11.3033  255 255 255
68.362 -12.7646 22.634  255 255 255
-12.0558 -5.03738 -4.85148  255 255 255
69.0142 -14.4961 24.299  255 255 255
-25.518 -4.21311 -10.9009  255 255 255
68.1991 -13.8782 21.5806  255 255 255
-17.9408 -5.174 -6.46837  255 255 255
-23.3559 -3.46185 -17.1447  255 255 255
64.2261 -12.3663 14.5036  255 255 255
67.9211 -14.0909 23.3314  255 255 255
64.9206 -12.6208 14.7671  255 255 255
-20.7764 -7.71233 -3.67174  255 255 255
11.4002 -0.135186 -37.1216  255 255 255
69.3623 -14.4674 22.762  255 255 255
-17.1957 -5.35626 -13.7888  255 255 255
69.3939 -15.208 24.1388  255 255 255
-24.8692 -3.24676 -20.9557  255 255 255
-23.0392 -5.72465 -13.567  255 255 255
-17.848 -5.72051 -16.3205  255 255 255
-3.54066 1.44691 -45.9838  255 255 255
-3.28184 1.12729 -45.9963  255 255 255
-24.9067 -4.9826 -13.1938  255 255 255
-17.7725 -6.27576 -15.8896  255 255 255
-23.6338 -4.65027 -19.568  255 255 255
70.7572 -16.9739 25.189  255 255 255
-26.2742 -5.84482 -14.22  255 255 255
-12.1933 -6.39294 -19.9153  255 255 255
65.4477 -14.5763 16.4447  255 255 255
-45.3134 -3.43166 -29.8686  255 255 255
71.9634 -16.8403 26.2129  255 255 255
70.0334 -17.7823 26.4155  255 255 255
63.5532 -13.368 10.0064  255 255 255
-15.5283 -7.77342 -12.2847  255 255 255
65.5987 -13.0855 5.96584  255 255 255
-18.2512 4.15227 -70.2632  255 255 255
15.6064 -7.13378 -23.5878  255 255 255
64.06 -15.1792 12.9613  255 255 255
-22.1644 -0.569539 -56.1814  255 255 255
-26.7013 -8.30628 -17.5709  255 255 255
-24.2946 -8.46888 -16.6037  255 255 255
69.0474 -18.4996 22.5646  255 255 255
7.68049 -10.1249 -20.1628  255 255 255
70.4011 -19.7725 25.462  255 255 255
-19.8603 -11.9221 -5.80671  255 255 255
71.0226 -19.2136 25.1636  255 255 255
-43.617 -8.16239 -29.3347  255 255 255
65.569 -17.55 12.8987  255 255 255
-25.4646 -8.91589 -25.8823  255 255 255
71.4236 -19.5444 24.5899  255 255 255
64.7872 -17.2641 11.077  255 255 255
-16.7353 -9.56048 -27.3122  255 255 255
-23.3845 -11.2388 -16.7028  255 255 255
-22.7013 -11.2829 -15.9302  255 255 255
-21.231 -12.6793 -11.0732  255 255 255
-23.4626 -10.2505 -23.2241  255 255 255
71.0664 -19.5757 27.8852  255 255 255
71.4638 -21.4835 27.0252  255 255 255
62.2365 -17.7744 6.91248  255 255 255
62.8923 -18.2573 7.81694  255 255 255
-22.0459 -15.5458 -6.44694  255 255 255
72.2638 -22.3164 25.651  255 255 255
-33.8546 -11.9084 -33.4554  255 255 255
71.353 -23.0996 25.9107  255 255 255
-40.517 -16.1657 -15.9242  255 255 255
-9.93533 -15.4981 -21.0496  255 255 255
63.6363 -21.8231 8.99874  255 255 255
-24.9535 -16.4072 -20.7585  255 255 255
-23.3766 -16.7145 -25.3358  255 255 255
72.3904 -24.9147 24.7899  255 255 255
70.5335 -25.333 21.1919  255 255 255
72.1933 -23.8172 23.565  255 255 255
-17.6244 -20.0085 -14.8407  255 255 255
2.14983 -23.3853 1.16996  255 255 255
21.5795 -25.8089 17.7341  255 255 255
68.2835 -25.2315 15.5062  255 255 255
67.3095 -24.8254 14.7551  255 255 255
-0.54383 -23.3609 1.55093  255 255 255
-2.83958 -24.0931 1.7694  255 255 255
73.0464 -26.1893 23.2342  255 255 255
71.1407 -26.1077 18.9146  255 255 255
70.8356 -26.3969 17.5534  255 255 255
13.4523 -27.0974 16.6586  255 255 255
-16.9554 -25.0466 -9.55209  255 255 255
69.2806 -27.2943 16.0182  255 255 255
71.1626 -28.3195 19.7452  255 255 255
73.5019 -30 22.0706  255 255 255
70.5856 -28.6799 15.1055  255 255 255
69.7885 -29.1822 15.7947  255 255 255
72.3362 -30.7287 20.9371  255 255 255
70.8899 -29.7206 18.2535  255 255 255
60.5729 -31.237 -7.48235  255 255 255
-5.96597 -29.8945 1.66503  255 255 255
38.9129 -31.3319 26.7698  255 255 255
40.9603 -31.6337 28.5664  255 255 255
11.088 -30.8374 14.847  255 255 255
-17.6655 -31.2839 2.10808  255 255 255
-38.3412 -32.1283 2.26184  255 255 255
11.8294 -33.8606 16.2022  255 255 255
64.5746 -34.3284 -2.40105  255 255 255
68.5149 -33.945 7.78948  255 255 255
-38.2085 -33.0942 3.12319  255 255 255
14.7872 -34.532 19.9518  255 255 255
66.1361 -34.4669 5.93221  255 255 255
30.0167 -35.7784 32.8823  255 255 255
-45.4268 -36.7544 -1.87003  255 255 255
-4.69672 -35.6948 2.40633  255 255 255
-0.000546026 -36.4737 14.0333  255 255 255
33.9552 -36.3786 30.5947  255 255 255
2.20282 -36.8079 16.173  255 255 255
12.4857 -37.949 21.4661  255 255 255
34.0883 -38.1884 31.8425  255 255 255
67.2117 -41.4122 3.2213  255 255 255
29.7274 -38.412 31.2213  255 255 255
-36.0061 -41.2196 11.1061  255 255 255
26.1199 -42.3965 23.0868  255 255 255
35.1079 -46.805 31.9315  255 255 255
57.001 -59.4643 35.8638  255 255 255
55.813 -59.3395 35.3344  255 255 255
56.6916 -58.9351 34.4195  255 255 255
52.4583 -59.7678 36.626  255 255 255
53.1742 -59.5422 39.3702  255 255 255
32.1707 -63.3588 30.1439  255 255 255
52.1266 -61.6262 36.51  255 255 255
52.4867 -60.7273 38.5364  255 255 255
0.984377 14.9304 -10.738  255 255 255
-34.3767 14.6113 -9.0006  255 255 255
-14.6607 11.9835 -2.38607  255 255 255
-70.8862 37.2167 -62.1445  255 255 255
54.03 26.9596 -42.688  255 255 255
25.5007 15.3293 -13.0568  255 255 255
-20.8856 10.1321 -2.39204  255 255 255
-21.3708 9.3279 -1.50286  255 255 255
-23.4851 8.81423 0.605456  255 255 255
-23.4492 8.80859 2.88909  255 255 255
-23.6472 9.31792 -0.809773  255 255 255
-13.8027 11.4929 -6.1951  255 255 255
-12.2739 9.91433 -5.17012  255 255 255
21.2794 14.5551 -16.4745  255 255 255
-10.8018 11.519 -7.73964  255 255 255
-17.5495 7.64508 2.8196  255 255 255
-88.8287 51.2018 -101.99  255 255 255
-52.9213 23.9319 -39.1481  255 255 255
62.1623 -2.36592 22.1508  255 255 255
-18.9943 7.88017 -5.71119  255 255 255
65.9567 3.30827 4.61479  255 255 255
-18.6072 7.25085 -2.4317  255 255 255
64.7886 -3.13231 21.0458  255 255 255
-20.8836 8.94054 -3.74265  255 255 255
20.9735 13.4825 -24.6243  255 255 255
64.6123 -3.14405 22.8562  255 255 255
64.2337 -3.06701 19.7929  255 255 255
59.787 -8.24542 34.405  255 255 255
60.878 -8.2075 35.1192  255 255 255
-20.5283 7.26958 -6.29627  255 255 255
60.847 -8.01089 33.2562  255 255 255
16.5032 7.38798 -10.0579  255 255 255
63.7817 -3.44637 19.8276  255 255 255
14.6334 9.39793 -19.4619  255 255 255
19.8883 12.8612 -29.7013  255 255 255
64.3522 -4.70416 20.89  255 255 255
12.5892 13.4694 -28.3648  255 255 255
63.8548 -5.64763 21.9578  255 255 255
66.208 -5.94704 22.2428  255 255 255
64.4743 -4.53342 21.2559  255 255 255
65.3928 -7.34076 19.3331  255 255 255
61.9594 0.577055 -4.62986  255 255 255
-36.5547 7.14809 -17.6795  255 255 255
63.2234 -7.77557 19.2172  255 255 255
-6.97572 2.1565 -9.65921  255 255 255
-45.3309 10.6584 -33.7425  255 255 255
5.10132 4.89497 -23.8184  255 255 255
-10.0625 2.31442 -15.3049  255 255 255
60.2008 -13.2339 33.1882  255 255 255
-17.2443 2.03621 -12.7772  255 255 255
64.9635 -9.82163 18.4761  255 255 255
64.0079 -9.12129 17.1465  255 255 255
64.8621 -2.2441 -5.8688  255 255 255
63.9329 -9.16633 18.0932  255 255 255
-25.3492 -1.13882 -5.21496  255 255 255
-23.4266 -0.326207 -9.43595  255 255 255
64.0348 -8.83058 18.6571  255 255 255
64.3078 -8.63974 17.3915  255 255 255
-23.4206 -0.673592 -9.42612  255 255 255
68.0544 -12.5766 24.1647  255 255 255
-63.0635 7.67698 -40.4689  255 255 255
-36.6031 2.33655 -23.616  255 255 255
-22.8905 -2.36217 -10.9436  255 255 255
64.4907 -10.4291 16.5281  255 255 255
61.9465 -10.0045 13.384  255 255 255
-12.1096 -2.45605 -12.5781  255 255 255
-22.891 -1.03147 -15.2311  255 255 255
69.2429 -12.2601 24.5689  255 255 255
-26.6577 -2.694 -11.6801  255 255 255
-54.7126 4.49555 -38.5211  255 255 255
-22.1636 -5.42221 -2.4201  255 255 255
-25.6898 -2.27781 -10.8955  255 255 255
-26.025 -3.56461 -11.5501  255 255 255
-14.6263 -1.57038 -21.2285  255 255 255
69.8108 -14.6142 25.7391  255 255 255
-19.0705 -3.92456 -13.0078  255 255 255
-22.3312 -2.69275 -16.526  255 255 255
-19.2432 -5.63453 -8.79475  255 255 255
64.7344 -13.1736 14.1495  255 255 255
-50.6362 -0.369546 -35.4155  255 255 255
70.1727 -16.3527 25.4231  255 255 255
11.3058 -5.85615 -23.4128  255 255 255
-41.8946 -6.78141 -20.8895  255 255 255
-43.5387 -5.6776 -29.9469  255 255 255
-25.1599 -10.0418 -10.9186  255 255 255
-45.1371 -6.69772 -29.0795  255 255 255
70.8835 -18.616 27.4487  255 255 255
64.9495 -17.079 13.9796  255 255 255
5.10079 -13.6219 -6.52856  255 255 255
65.2111 -17.3553 13.804  255 255 255
-26.796 -9.76297 -16.3069  255 255 255
-41.78 -9.36179 -24.2291  255 255 255
-39.1806 -11.5107 -19.397  255 255 255
71.1644 -21.1047 24.991  255 255 255
6.17833 -9.16185 -35.885  255 255 255
72.2082 -21.5965 25.801  255 255 255
71.148 -19.6368 24.7211  255 255 255
16.5805 -12.4225 -28.1179  255 255 255
62.595 -19.0863 8.25833  255 255 255
62.8861 -18.5773 8.09241  255 255 255
72.4389 -22.5907 24.9084  255 255 255
-18.6768 -16.1916 -18.6506  255 255 255
26.7886 -24.1915 24.4108  255 255 255
62.5103 -21.9793 -0.17535  255 255 255
-23.818 -18.1858 -16.4305  255 255 255
66.6493 -23.9085 9.75896  255 255 255
71.7793 -24.5748 21.7509  255 255 255
11.854 -24.3602 7.40147  255 255 255
-4.72749 -26.7688 2.54248  255 255 255
63.2946 -29.5013 -2.61133  255 255 255
61.4447 -30.0669 -3.15423  255 255 255
25.4235 -32.9863 24.8371  255 255 255
62.8369 -31.6275 -4.83638  255 255 255
32.1788 -32.2853 31.0207  255 255 255
62.2355 -34.0621 -4.4735  255 255 255
64.2003 -33.6614 -1.63436  255 255 255
-22.6818 -32.2825 -2.95135  255 255 255
28.0623 -33.307 33.2983  255 255 255
5.92484 -34.1496 17.9462  255 255 255
33.0081 -35.1655 30.8309  255 255 255
-44.3035 -36.8505 -0.592416  255 255 255
-45.6747 -36.6757 -0.219406  255 255 255
-5.35819 -36.4761 12.8795  255 255 255
-3.22398 -37.2423 15.3445  255 255 255
11.8747 -38.0912 22.899  255 255 255
74.0159 -38.1817 20.9814  255 255 255
-1.27735 -38.4912 16.958  255 255 255
-38.4317 -41.1677 6.45612  255 255 255
-37.4152 -41.843 6.59363  255 255 255
75.6243 -43.2392 18.9064  255 255 255
35.2861 -41.6096 31.6188  255 255 255
43.1715 -54.8774 22.684  255 255 255
-15.0205 -54.8143 23.3606  255 255 255
56.0617 -59.426 35.5269  255 255 255
54.7383 -59.4524 35.838  255 255 255
-35.4599 17.8694 -15.4808  255 255 255
66.7008 2.41059 13.1203  255 255 255
67.2665 3.64877 14.2544  255 255 255
61.1206 -2.08302 22.6262  255 255 255
-49.4621 21.4174 -33.7095  255 255 255
-18.38 8.43216 -1.90414  255 255 255
68.2094 2.20632 11.0891  255 255 255
23.4896 8.94425 -6.25985  255 255 255
-69.182 33.8664 -65.4576  255 255 255
63.7004 -3.66992 24.7209  255 255 255
34.2471 7.56106 -7.0709  255 255 255
63.9658 -4.48149 25.5298  255 255 255
63.6648 -3.64307 24.6886  255 255 255
64.2636 -4.32523 24.4198  255 255 255
-8.46731 9.92542 -15.5548  255 255 255
64.9996 -3.96208 20.5458  255 255 255
60.3646 -9.111 34.1258  255 255 255
20.6084 14.4419 -30.5627  255 255 255
13.0671 10.1857 -24.5163  255 255 255
71.1533 -4.71983 18.5776  255 255 255
65.3628 -5.4333 19.2775  255 255 255
64.6729 -5.41124 20.3745  255 255 255
68.712 -8.36834 27.1221  255 255 255
67.6599 11.2853 -33.7445  255 255 255
61.7253 -12.0293 39.0002  255 255 255
62.6025 1.90569 -5.45713  255 255 255
60.814 -13.0486 40.184  255 255 255
64.5038 -5.74784 18.3463  255 255 255
-40.3526 9.97788 -26.6879  255 255 255
64.4496 -7.87968 20.207  255 255 255
62.4424 -6.13687 14.9644  255 255 255
20.2304 6.4776 -28.9935  255 255 255
-20.7543 1.86528 -11.702  255 255 255
65.5097 -8.76677 17.4324  255 255 255
5.81977 2.70165 -23.6535  255 255 255
63.5719 -9.90776 16.6464  255 255 255
-64.0669 8.86124 -42.1348  255 255 255
-32.1942 0.32794 -17.8437  255 255 255
-21.4281 -2.45067 -10.0823  255 255 255
-23.9997 -1.61952 -12.6461  255 255 255
-22.7705 -2.15603 -12.0775  255 255 255
65.2957 -11.2855 18.2162  255 255 255
69.325 -13.4021 24.8632  255 255 255
-66.8239 1.63976 -35.9671  255 255 255
62.4874 -12.4479 11.5406  255 255 255
-42.1577 -1.996 -30.6862  255 255 255
-62.755 -1.87476 -32.7379  255 255 255
-63.8189 -0.40802 -31.8976  255 255 255
-41.5935 -2.79671 -28.1629  255 255 255
-46.7113 -2.71174 -27.7788  255 255 255
-44.1303 -3.94006 -27.8213  255 255 255
65.2285 -14.8356 14.5951  255 255 255
-19.5236 -4.87717 -22.2302  255 255 255
62.6037 -14.7344 11.1628  255 255 255
-15.9341 -8.60221 -9.8717  255 255 255
-43.9741 -3.95891 -28.8404  255 255 255
64.8263 -16.1838 13.727  255 255 255
-42.4243 -7.90049 -25.3265  255 255 255
-42.8873 -9.00837 -25.795  255 255 255
72.6585 -19.4586 25.3645  255 255 255
60.5966 -17.1635 5.36685  255 255 255
-24.7805 -13.38 -17.0127  255 255 255
-27.9292 -8.29595 -38.842  255 255 255
-22.3318 -12.4659 -21.1404  255 255 255
70.956 -20.6203 26.4887  255 255 255
-31.2252 -14.4091 -26.3874  255 255 255
-24.1611 -18.1092 -18.3274  255 255 255
58.8391 -20.4113 -19.6444  255 255 255
59.1315 -21.2259 -20.76  255 255 255
23.4693 -25.7554 26.25  255 255 255
70.1136 -26.1218 22.1838  255 255 255
-44.301 -21.8348 -7.45203  255 255 255
-35.959 -21.9644 -7.72506  255 255 255
4.48931 -23.8309 3.81914  255 255 255
7.33899 -23.2249 5.20186  255 255 255
2.55672 -23.6656 2.4967  255 255 255
2.32964 -23.3901 0.740408  255 255 255
20.7116 -26.101 18.1487  255 255 255
-40.2142 -23.6744 -0.668982  255 255 255
-40.3348 -23.5746 -1.17417  255 255 255
-7.96538 -22.8765 -14.2283  255 255 255
-42.4723 -26.8993 -2.62889  255 255 255
34.5437 -30.9805 30.8892  255 255 255
63.1165 -29.0256 -2.63082  255 255 255
62.5183 -30.1077 -2.70391  255 255 255
-38.5532 -30.1177 1.73818  255 255 255
73.7859 -33.6459 21.57  255 255 255
17.7948 -35.0998 21.1844  255 255 255
-18.8471 -33.3175 0.669187  255 255 255
-3.50238 -33.3407 10.69  255 255 255
73.9845 -35.3574 21.4374  255 255 255
-2.78913 -36.2571 11.8243  255 255 255
-7.50391 -37.1131 13.0988  255 255 255
33.6236 -37.4293 32.0555  255 255 255
-42.9437 -40.8344 3.34717  255 255 255
-38.2286 -40.3181 10.8332  255 255 255
-39.8833 -42.1656 6.68557  255 255 255
53.3692 -61.4369 36.3218  255 255 255
-6.3977 15.2886 -11.5358  255 255 255
66.6226 6.03265 5.08787  255 255 255
-30.1122 11.3131 -5.74145  255 255 255
-18.25 7.96319 -1.02999  255 255 255
-14.3726 8.47198 -4.4855  255 255 255
-0.31152 14.3188 -17.3592  255 255 255
63.7241 2.94463 9.52187  255 255 255
61.3893 -0.266585 18.5302  255 255 255
61.045 -1.40768 18.7565  255 255 255
63.1571 -2.16507 21.0524  255 255 255
-20.7314 9.10279 -4.41296  255 255 255
64.1035 -1.14482 20.7061  255 255 255
-53.2003 23.5398 -41.8071  255 255 255
-20.2375 7.01041 -3.68785  255 255 255
-20.5399 7.29381 -4.72011  255 255 255
18.2266 7.8758 -9.07714  255 255 255
64.2096 -3.7951 20.824  255 255 255
-25.3478 5.24631 -2.41903  255 255 255
-26.2732 5.41845 -2.94455  255 255 255
16.5441 13.9153 -29.5223  255 255 255
65.3079 -4.05054 20.2804  255 255 255
63.7921 -5.20153 21.8956  255 255 255
-60.4289 24.1136 -55.8464  255 255 255
-1.39682 10.933 -24.5125  255 255 255
-55.964 19.6106 -49.2249  255 255 255
-53.669 18.9055 -43.123  255 255 255
-16.6579 6.09849 -9.09767  255 255 255
-45.7708 13.1924 -32.7359  255 255 255
-52.7057 17.6858 -43.8028  255 255 255
64.5916 -5.91777 19.4464  255 255 255
68.8065 -9.34519 26.3294  255 255 255
69.1093 -10.172 27.4529  255 255 255
64.773 -8.00397 19.2119  255 255 255
65.7828 -9.27516 18.7509  255 255 255
-11.9608 1.51233 -18.3898  255 255 255
0.939263 -1.24937 -12.2548  255 255 255
-17.4784 -1.8698 -10.5773  255 255 255
-57.2868 8.33425 -47.0092  255 255 255
63.7224 -11.322 19.7261  255 255 255
-17.9197 0.385625 -20.2663  255 255 255
-13.4696 -5.94339 -3.21305  255 255 255
6.42911 1.41657 -33.5007  255 255 255
-25.6166 -5.20196 -10.2579  255 255 255
-12.5353 -2.0796 -18.4348  255 255 255
-44.4438 1.31359 -32.1005  255 255 255
-43.7005 0.629086 -32.5052  255 255 255
-47.8144 2.10488 -35.4741  255 255 255
-7.58054 -2.13397 -26.7796  255 255 255
-46.6229 -0.34853 -32.1501  255 255 255
70.4605 -15.3869 25.3147  255 255 255
-44.7414 -2.87948 -27.3119  255 255 255
-46.196 -2.54269 -30.9035  255 255 255
-46.7291 -3.43028 -29.4892  255 255 255
-48.4273 -2.14629 -31.8408  255 255 255
-24.546 -7.08025 -15.1823  255 255 255
-41.7323 -7.76915 -25.2935  255 255 255
15.3726 -3.66433 -61.8648  255 255 255
15.0443 -2.17551 -61.3721  255 255 255
-25.2608 -10.7954 -21.5165  255 255 255
71.7953 -19.6258 26.7327  255 255 255
-29.0513 -9.55212 -26.0267  255 255 255
-26.2249 -11.6755 -13.7161  255 255 255
64.3213 -20.4903 10.1757  255 255 255
-54.1122 -16.1344 -15.2786  255 255 255
-26.1075 -17.4034 -17.0978  255 255 255
-24.3095 -18.9094 -17.0605  255 255 255
12.1516 -19.7771 -25.1656  255 255 255
5.42363 -23.2844 0.556378  255 255 255
6.14245 -23.9703 7.18601  255 255 255
-45.7363 -20.4657 -10.9916  255 255 255
-2.20798 -21.9865 -12.5359  255 255 255
-41.8155 -22.4823 -3.78687  255 255 255
66.2847 -26.5161 7.39918  255 255 255
-2.91462 -26.0057 0.789469  255 255 255
34.4629 -30.8775 29.4743  255 255 255
35.9613 -30.8054 29.4546  255 255 255
-2.20048 -28.1303 -11.2902  255 255 255
29.1405 -32.1765 31.7649  255 255 255
21.3106 -31.8403 29.6025  255 255 255
-25.3015 -30.1834 -4.92465  255 255 255
3.38729 -31.1606 11.5782  255 255 255
-45.3896 -30.9893 -2.74847  255 255 255
-36.0128 -31.2929 0.00745959  255 255 255
-13.0022 -35.2294 1.69957  255 255 255
-5.79793 -35.2938 10.7254  255 255 255
-5.33697 -35.1505 11.729  255 255 255
-6.48469 -35.8871 11.7508  255 255 255
33.0344 -39.0657 31.4706  255 255 255
-37.1562 -41.5837 9.63215  255 255 255
-38.5017 -43.4 8.62089  255 255 255
27.4821 -48.1028 22.9513  255 255 255
32.5267 -49.8577 29.5347  255 255 255
37.1445 -54.9363 25.4077  255 255 255
-21.8767 9.32378 -0.364751  255 255 255
67.4896 -0.523246 17.9926  255 255 255
63.7058 -2.98791 20.5343  255 255 255
10.7692 11.8107 -23.8251  255 255 255
60.6249 -12.5746 41.0685  255 255 255
-16.698 3.703 -7.93842  255 255 255
64.1097 -2.88675 2.21139  255 255 255
-24.9352 -0.710923 -3.50438  255 255 255
-1.84295 2.63938 -16.2287  255 255 255
-16.3542 0.495711 -16.4537  255 255 255
65.4573 -4.01927 -6.56269  255 255 255
-49.5086 9.22186 -44.5058  255 255 255
-50.2567 7.80956 -47.1604  255 255 255
65.2922 -4.39033 -4.14926  255 255 255
-28.3885 -4.78261 -15.1744  255 255 255
-44.7911 -0.290688 -34.1151  255 255 255
-49.0629 -6.04813 -31.5172  255 255 255
3.31355 -12.4305 -9.07633  255 255 255
-24.9997 -12.1886 -22.2311  255 255 255
67.617 -18.8071 6.68775  255 255 255
-26.352 -15.2072 -18.6969  255 255 255
61.9675 -21.5517 6.6874  255 255 255
-23.8296 -15.5753 -26.4765  255 255 255
-24.9173 -17.2942 -21.7778  255 255 255
67.6414 -23.7405 14.2298  255 255 255
23.9787 -26.2139 22.7097  255 255 255
-15.3606 -26.2679 -7.88679  255 255 255
72.6603 -29.9457 20.5926  255 255 255
-38.6707 -32.202 4.13871  255 255 255
-14.5095 -33.6178 -2.33261  255 255 255
-8.57448 -35.071 7.52389  255 255 255
-8.74178 -36.2502 2.63582  255 255 255
-9.45554 -34.8343 3.19233  255 255 255
-3.7156 -36.0024 13.1447  255 255 255
-3.79698 -36.9794 12.9655  255 255 255
-10.5154 -37.197 3.18346  255 255 255
25.6093 -37.0646 31.5691  255 255 255
13.1745 -42.1316 24.2358  255 255 255
74.9506 -42.9498 18.6123  255 255 255
33.2453 -43.4389 30.275  255 255 255
20.1495 -45.3187 24.756  255 255 255
32.8342 -45.9045 32.812  255 255 255
72.1251 14.9334 -14.9562  255 255 255
63.1096 0.591079 22.053  255 255 255
67.2402 3.76743 10.962  255 255 255
60.8587 -6.31785 34.9365  255 255 255
63.7541 -3.64019 23.8219  255 255 255
62.6303 -2.52554 19.4276  255 255 255
24.0693 15.7524 -30.6788  255 255 255
64.8272 -3.98175 22.1028  255 255 255
64.5989 2.64711 2.52399  255 255 255
64.5497 -4.34303 21.5202  255 255 255
-52.5701 18.1703 -42.8919  255 255 255
65.8035 -6.07117 19.709  255 255 255
64.9965 -6.70234 20.8015  255 255 255
60.7757 -7.11561 15.982  255 255 255
-29.1028 0.0445753 -11.9194  255 255 255
61.7707 -11.3347 6.46806  255 255 255
-24.8476 -4.76186 -13.4949  255 255 255
-46.497 -3.03728 -30.6631  255 255 255
-14.8079 -9.52056 -5.26641  255 255 255
71.5351 -20.6351 26.1808  255 255 255
-39.8239 -10.1125 -20.9482  255 255 255
8.71346 -15.6935 -2.85095  255 255 255
8.77288 -11.8782 -26.2457  255 255 255
26.3217 -12.7836 -31.9222  255 255 255
67.7653 -22.9827 17.2634  255 255 255
62.196 -25.5352 -2.96726  255 255 255
72.2054 -30.1973 21.4767  255 255 255
-44.9659 -30.1002 0.0716373  255 255 255
-40.521 -31.5926 3.0517  255 255 255
-13.8194 -33.5789 1.28014  255 255 255
16.6829 -36.2071 22.4385  255 255 255
16.6593 -41.7153 24.7038  255 255 255
-42.0865 18.5738 -24.9859  255 255 255
67.3309 0.409871 14.3097  255 255 255
-43.1301 16.334 -26.7074  255 255 255
9.81519 13.3637 -25.2749  255 255 255
-51.2762 18.2547 -40.1918  255 255 255
63.5857 -7.83802 19.3056  255 255 255
-31.175 2.67779 -14.8216  255 255 255
63.5237 -6.71436 16.1253  255 255 255
-53.9299 9.73904 -47.7652  255 255 255
69.0375 -13.2175 24.3498  255 255 255
-32.8518 -1.00074 -18.9393  255 255 255
-6.82982 -6.13925 -9.64588  255 255 255
60.3783 -16.2142 3.04829  255 255 255
-25.1613 -16.7241 -19.2552  255 255 255
-21.8032 -21.9206 -19.3354  255 255 255
-0.243875 -26.2763 -15.4376  255 255 255
-6.71656 -28.8328 -0.556925  255 255 255
-10.9803 -33.2618 -0.335782  255 255 255
-2.76369 -34.3531 10.3978  255 255 255
-5.13421 -35.0091 12.0108  255 255 255
23.5398 -47.4073 30.7016  255 255 255
-48.779 16.8985 -37.5112  255 255 255
63.3032 -1.22168 -1.22534  255 255 255
-2.29317 6.42784 -24.3626  255 255 255
70.6026 -15.815 26.9661  255 255 255
70.4476 -15.4948 27.3658  255 255 255
70.0327 -18.5702 22.352  255 255 255
-12.1483 -30.3167 -3.39372  255 255 255
-39.2958 -31.4116 -0.523137  255 255 255
15.1577 -41.4064 27.8675  255 255 255
60.5802 -3.56296 22.2762  255 255 255
10.7436 7.53081 -32.1388  255 255 255
-10.2544 -38.5955 1.67274  255 255 255
66.1911 -13.931 18.8772  255 255 255
40.478 -36.0892 27.6603  255 255 255
40.2167 -51.9287 24.3051  255 255 255
-25.5213 1.79703 -1.37497  255 255 255
-26.2063 6.2561 -3.06248  255 255 255
40.2653 27.1785 -32.7152  255 255 255
-5.65068 12.6622 -23.0787  255 255 255
-81.7007 4.21563 -37.339  255 255 255
39.8071 26.8671 -34.2974  255 255 255
-40.5927 7.26501 -28.0693  255 255 255
44.0474 31.2307 -45.3461  255 255 255
-77.8205 2.69725 -34.8924  255 255 255
35.5232 26.902 -39.3573  255 255 255
8.47695 12.7808 -21.0614  255 255 255
-77.5259 1.86159 -35.8722  255 255 255
-79.5361 0.493617 -36.1702  255 255 255
-24.59 -0.932689 -8.24643  255 255 255
41.6628 22.9344 -32.647  255 255 255
41.4042 23.141 -33.3782  255 255 255
-75.5773 -3.90876 -28.259  255 255 255
1.71901 8.91928 -21.7091  255 255 255
-11.2118 7.68201 -25.2998  255 255 255
-72.2095 -2.73629 -28.6468  255 255 255
-5.50079 15.3155 -41.6277  255 255 255
30.3279 20.8565 -33.6988  255 255 255
-19.7056 1.3166 -14.5765  255 255 255
-12.1492 3.96893 -16.0586  255 255 255
-72.7164 -2.82545 -30.5823  255 255 255
24.7445 17.5545 -31.6404  255 255 255
-73.3083 -3.391 -30.3585  255 255 255
12.789 13.2737 -28.4689  255 255 255
-71.908 -3.56704 -30.8464  255 255 255
-25.655 -3.24992 -8.9152  255 255 255
65.1194 32.0816 -49.3822  255 255 255
-0.669991 7.36688 -27.1269  255 255 255
27.1167 15.7167 -33.385  255 255 255
-17.3534 0.917207 -20.3478  255 255 255
22.2859 13.4313 -30.9695  255 255 255
22.8475 9.30366 -15.7886  255 255 255
-68.0739 -5.64014 -28.3953  255 255 255
-66.8301 -5.99343 -26.2122  255 255 255
-45.4626 -21.3318 25.8903  255 255 255
70.4205 38.6006 -69.5269  255 255 255
34.4911 9.23075 -15.3825  255 255 255
38.9402 22.6384 -48.3884  255 255 255
33.7022 5.72654 -1.80477  255 255 255
42.144 19.5436 -41.214  255 255 255
46.3186 17.1214 -27.5579  255 255 255
61.8356 32.4841 -63.1815  255 255 255
19.3338 5.67953 -15.7596  255 255 255
-24.8361 -4.81654 -14.3403  255 255 255
52.4382 25.8056 -50.6683  255 255 255
71.3955 43.3118 -87.1351  255 255 255
39.5989 21.5342 -48.9939  255 255 255
40.188 17.3735 -36.3728  255 255 255
-61.1669 -17.9967 1.97412  255 255 255
64.0659 36.5108 -77.4845  255 255 255
61.0053 35.5373 -74.2934  255 255 255
38.4977 20.2317 -47.9803  255 255 255
-73.2894 -15.3195 -15.8376  255 255 255
55.8954 30.8618 -69.209  255 255 255
46.4899 18.5076 -47.1024  255 255 255
35.3975 5.16995 -13.0198  255 255 255
60.3015 20.6714 -46.1454  255 255 255
-20.1939 -7.34145 -23.5124  255 255 255
-23.996 -4.95879 -32.7783  255 255 255
-25.6864 -5.2914 -33.3138  255 255 255
67.1634 34.7584 -88.3797  255 255 255
-21.1227 -6.97019 -24.849  255 255 255
65.0881 32.4624 -85.9057  255 255 255
3.22557 -1.15015 -33.3474  255 255 255
9.57273 0.489793 -34.3168  255 255 255
11.4861 3.01592 -35.4353  255 255 255
62.5582 24.2583 -70.3463  255 255 255
-63.3376 -19.8848 -11.3524  255 255 255
77.5248 37.8761 -102.634  255 255 255
-25.3154 -30.1252 44.7322  255 255 255
5.85973 0.0247406 -34.6692  255 255 255
70.4647 33.8629 -97.4565  255 255 255
-46.1609 -17.2681 -20.0643  255 255 255
-38.3882 -15.6719 -20.2837  255 255 255
-52.9983 -27.373 10.3514  255 255 255
-58.015 -25.9567 -5.61801  255 255 255
-55.8164 -25.5054 -2.87899  255 255 255
-56.5975 -26.9558 0.173012  255 255 255
-33.3004 -18.1085 -18.4685  255 255 255
-53.5965 -27.0527 -0.732881  255 255 255
-30.2652 -12.3389 -48.4345  255 255 255
-50.9338 -29.5797 0.66797  255 255 255
-51.9735 -28.8071 -1.36923  255 255 255
-53.7259 -30.2644 -1.65039  255 255 255
37.3623 -6.32748 -8.19561  255 255 255
-20.551 -18.3242 -18.1111  255 255 255
38.1285 -7.97909 -9.91635  255 255 255
-52.9342 -31.8739 3.11179  255 255 255
38.2486 -8.08036 -9.09877  255 255 255
-38.4879 -25.2952 -15.024  255 255 255
62.3953 -2.04859 -8.82573  255 255 255
36.868 -7.99496 -6.93745  255 255 255
-16.1283 -21.4072 -15.5516  255 255 255
37.7276 -8.79294 -7.9258  255 255 255
35.1668 -12.3555 -0.251138  255 255 255
-30.7935 -28.2894 -7.03655  255 255 255
62.1542 -5.62484 -8.29628  255 255 255
-31.4896 -30.5469 -1.90555  255 255 255
-28.3869 -31.6306 -0.514761  255 255 255
61.6686 -6.74546 -17.1904  255 255 255
62.2975 -7.96575 -16.4771  255 255 255
61.1706 -8.36386 -19.1616  255 255 255
60.8031 -8.58037 -19.9341  255 255 255
-36.5505 -37.7312 5.91931  255 255 255
-25.058 -35.0336 0.329335  255 255 255
59.4944 -11.6831 -11.3224  255 255 255
-38.8748 -43.4822 29.0919  255 255 255
60.5755 -11.3395 -8.93626  255 255 255
59.6528 -14.5686 -6.78139  255 255 255
-41.5147 -48.1169 19.1301  255 255 255
61.0846 -17.5898 -9.11418  255 255 255
38.37 -32.2298 26.907  255 255 255
40.3546 -31.7315 25.7921  255 255 255
22.1587 -37.8627 30.2738  255 255 255
63.1462 -30.4764 -1.14059  255 255 255
-14.4908 -56.903 25.7864  255 255 255
66.3902 -34.8177 3.92409  255 255 255
66.314 -36.6366 3.13926  255 255 255
67.1916 -38.7588 2.29336  255 255 255
32.9514 -47.9938 29.8637  255 255 255
-84.3075 5.53442 -41.0603  255 255 255
-78.49 5.55021 -36.6669  255 255 255
-59.2093 -12.8188 13.4328  255 255 255
57.6866 28.0654 -27.2159  255 255 255
-84.4526 -1.01211 -26.4167  255 255 255
-54.4109 -14.1934 18.7765  255 255 255
-47.7325 -17.0941 27.5456  255 255 255
59.3481 41.148 -61.3645  255 255 255
68.1846 46.1742 -72.0755  255 255 255
-48.8918 -18.2832 26.0744  255 255 255
-48.8226 -19.0152 25.1836  255 255 255
34.3922 13.9 -13.9234  255 255 255
-77.8211 -2.50567 -31.3596  255 255 255
-68.2851 -11.1788 -5.36698  255 255 255
-71.8727 -8.73447 -11.6942  255 255 255
-45.4468 -21.1661 27.4567  255 255 255
-7.29112 4.56195 -21.7513  255 255 255
-67.5788 -13.1896 -5.74888  255 255 255
-68.4853 -12.8885 -6.42714  255 255 255
57.1534 24.1999 -42.3878  255 255 255
-25.2889 -3.65967 -11.8757  255 255 255
-74.9336 -11.9838 -18.2732  255 255 255
39.6744 22.7702 -48.7883  255 255 255
34.9482 6.99176 -8.97362  255 255 255
-16.2526 -1.73072 -15.7942  255 255 255
-16.7792 0.397962 -22.9678  255 255 255
-64.7503 -16.0378 -3.1322  255 255 255
-66.4208 -15.9962 -5.28259  255 255 255
41.4729 12.6241 -21.2312  255 255 255
-61.2971 -17.6556 1.92587  255 255 255
-68.3426 -14.6755 -7.16004  255 255 255
50.3563 27.0966 -59.6374  255 255 255
49.9453 27.3153 -60.2143  255 255 255
-64.1862 -18.3202 -2.18885  255 255 255
-45.307 -24.4631 29.0955  255 255 255
40.2734 19.8516 -49.7745  255 255 255
-62.8461 -17.4038 -1.16271  255 255 255
59.9978 34.208 -74.6443  255 255 255
-66.3549 -18.3232 -5.22983  255 255 255
59.2277 20.6733 -39.6889  255 255 255
62.346 26.0126 -54.9493  255 255 255
-64.2011 -17.7354 -14.6709  255 255 255
-72.3712 -19.2429 -15.1476  255 255 255
-65.7316 -18.4908 -14.9183  255 255 255
58.0742 29.298 -77.2751  255 255 255
55.3801 27.2442 -73.4278  255 255 255
-60.6334 -22.8766 2.03986  255 255 255
-64.5429 -17.9993 -15.6536  255 255 255
-25.7266 -5.349 -35.1688  255 255 255
-64.7715 -20.1302 -11.1517  255 255 255
-66.2223 -21.4155 -7.44741  255 255 255
79.2928 41.9441 -108.639  255 255 255
34.4575 10.5314 -44.3697  255 255 255
-59.896 -24.4317 3.41607  255 255 255
-62.658 -19.7043 -13.676  255 255 255
-64.8863 -22.6631 -8.46493  255 255 255
57.4401 14.4551 -40.0328  255 255 255
58.3055 13.6971 -40.2038  255 255 255
10.17 -1.8766 -34.7652  255 255 255
-13.4702 -7.82064 -30.7681  255 255 255
-47.0022 -29.7521 21.146  255 255 255
-51.824 -29.2235 13.4358  255 255 255
-18.0395 -12.958 -25.4202  255 255 255
-51.8181 -26.9341 -2.22437  255 255 255
-51.8393 -27.4292 -0.262899  255 255 255
35.2886 -6.6957 -6.7674  255 255 255
-52.8216 -32.2813 8.30675  255 255 255
34.1812 -9.91914 -2.6041  255 255 255
-40.8791 -29.4064 -2.6943  255 255 255
-30.2326 -25.9459 -7.0711  255 255 255
-52.5964 -32.2315 -3.41411  255 255 255
-52.0002 -34.0226 5.68027  255 255 255
-26.6841 -25.5134 -8.39706  255 255 255
-46.191 -33.4614 5.09911  255 255 255
-44.9055 -34.1742 2.72724  255 255 255
59.8342 -5.74078 -18.5025  255 255 255
16.6316 -25.1201 10.8911  255 255 255
-37.1904 -37.8132 6.32816  255 255 255
60.1381 -14.0726 8.21305  255 255 255
18.8617 -29.3136 23.1108  255 255 255
61.6839 -23.6174 -0.473878  255 255 255
38.5014 -32.2044 28.22  255 255 255
38.0744 -34.6754 29.6685  255 255 255
22.4293 -40.2567 30.3237  255 255 255
62.9607 -30.3709 -2.21511  255 255 255
37.4966 -44.2571 32.0873  255 255 255
52.6644 -48.8951 13.4343  255 255 255
62.5978 -46.0191 8.48938  255 255 255
35.232 -58.6226 26.5181  255 255 255
37.1007 27.5714 -33.8158  255 255 255
-42.1943 -19.8243 35.3938  255 255 255
-39.9067 -20.9162 37.7209  255 255 255
-18.3253 3.00696 -10.942  255 255 255
34.6145 24.4045 -34.904  255 255 255
-26.9675 0.130838 -9.66195  255 255 255
16.5027 10.0605 -11.111  255 255 255
-57.9008 -13.8771 11.0186  255 255 255
-60.8736 -13.2899 8.06691  255 255 255
-49.444 -16.9155 21.1932  255 255 255
-67.2746 -11.8993 -2.73091  255 255 255
-69.4939 -10.076 -6.52344  255 255 255
-26.3708 -2.72432 -10.583  255 255 255
-50.3691 -18.9481 21.9659  255 255 255
8.15843 7.86335 -21.8476  255 255 255
-53.8279 -18.9362 16.3016  255 255 255
-70.1869 -5.2586 -29.4659  255 255 255
-39.2436 -23.6793 38.8593  255 255 255
-66.7535 -14.2524 -5.16001  255 255 255
-20.1225 -0.779003 -19.9518  255 255 255
60.7629 35.9761 -70.9995  255 255 255
-50.2103 -20.6657 18.0453  255 255 255
-48.2284 -21.6212 24.7715  255 255 255
-23.0257 -1.51016 -22.2524  255 255 255
-46.0356 -21.8481 25.9427  255 255 255
-44.0004 -23.6748 31.4609  255 255 255
-18.2862 -2.34534 -17.074  255 255 255
-47.4316 -21.5328 23.964  255 255 255
-63.9747 -16.2883 -1.69958  255 255 255
56.6669 31.2494 -68.5875  255 255 255
-67.7559 -16.6275 -6.95209  255 255 255
0.0868923 3.11569 -26.3852  255 255 255
-18.7149 -0.860277 -25.5479  255 255 255
-66.8239 -18.23 -5.95822  255 255 255
-65.8808 -17.319 -5.17849  255 255 255
54.4495 28.2662 -68.8357  255 255 255
-43.5747 -24.6889 30.1233  255 255 255
-66.0677 -17.2591 -6.35289  255 255 255
-39.7416 -25.8976 34.4859  255 255 255
-44.9966 -24.5577 25.5516  255 255 255
-52.6509 -24.1013 14.3881  255 255 255
-46.5795 -26.0423 24.394  255 255 255
56.6977 29.6063 -79.708  255 255 255
-57.4298 -23.0199 7.31354  255 255 255
-57.6095 -22.2129 6.44232  255 255 255
-43.8237 -27.5599 26.1607  255 255 255
-45.831 -26.4141 24.1197  255 255 255
-50.0644 -25.8165 13.2392  255 255 255
10.1494 1.9426 -36.7519  255 255 255
-20.6195 -6.544 -27.8796  255 255 255
-51.6507 -26.1487 12.3058  255 255 255
-30.4145 -11.4832 -35.2442  255 255 255
-17.5518 -8.81973 -33.297  255 255 255
-22.2765 -10.2803 -33.9283  255 255 255
-50.7331 -28.6303 13.1985  255 255 255
-55.1383 -26.1129 -2.26364  255 255 255
-54.9244 -25.7758 -3.13863  255 255 255
-55.8355 -25.4197 -4.00654  255 255 255
-56.8931 -25.1331 -6.79013  255 255 255
60.3164 3.02882 -8.04606  255 255 255
-53.2395 -29.6086 9.26669  255 255 255
-50.5956 -28.116 -1.13334  255 255 255
-43.8287 -33.885 22.459  255 255 255
-46.1992 -31.9248 3.82255  255 255 255
-23.6664 -24.8065 -9.15788  255 255 255
-44.8695 -33.3302 4.9316  255 255 255
-29.7317 -30.5978 -4.86133  255 255 255
-38.9494 -27.6903 -20.3215  255 255 255
-43.4986 -34.1653 3.57313  255 255 255
-41.4591 -34.9511 2.58796  255 255 255
-36.5133 -40.4759 30.7686  255 255 255
63.654 -8.20929 -14.5957  255 255 255
-38.3668 -40.8328 30.3602  255 255 255
31.7578 -22.6589 23.2374  255 255 255
62.3604 -20.2293 4.97765  255 255 255
24.1991 -45.531 30.989  255 255 255
43.8641 -47.7863 20.6593  255 255 255
52.7728 -49.3104 14.3667  255 255 255
-83.0079 2.83834 -36.6284  255 255 255
-82.5303 3.17457 -34.7807  255 255 255
-81.9928 3.46551 -35.8927  255 255 255
-77.7784 4.07952 -37.0615  255 255 255
54.5984 22.1325 -15.7851  255 255 255
55.8847 20.7327 -16.026  255 255 255
-39.9236 4.9987 -28.3933  255 255 255
68.5518 41.8956 -64.6617  255 255 255
-43.7376 -20.2735 32.7114  255 255 255
-74.9686 -9.11871 -15.8667  255 255 255
-74.5651 -9.04633 -13.8862  255 255 255
-78.8235 -8.48407 -21.2899  255 255 255
-56.2312 -15.7428 13.337  255 255 255
-27.7452 -2.51415 -14.3179  255 255 255
-16.8838 -1.45535 -15.3584  255 255 255
-15.4605 0.904279 -18.2897  255 255 255
35.22 7.61293 -10.4338  255 255 255
-45.1043 -23.8587 25.9531  255 255 255
-43.4892 -25.767 29.839  255 255 255
-44.2197 -25.956 30.0658  255 255 255
-46.2603 -24.9181 25.0166  255 255 255
60.1646 20.6493 -42.5478  255 255 255
-45.2294 -26.1284 24.662  255 255 255
-63.6144 -17.6908 -14.3819  255 255 255
48.8065 11.3013 -28.2785  255 255 255
-61.3445 -22.3931 -0.381068  255 255 255
-36.8885 -13.0232 -22.7928  255 255 255
-2.35287 -3.82595 -29.0387  255 255 255
-46.5718 -27.5087 24.1433  255 255 255
-37.6926 -15.7411 -19.7511  255 255 255
-25.0415 -10.3477 -26.6509  255 255 255
61.9118 3.4279 -9.56903  255 255 255
-51.9801 -27.6335 -0.466372  255 255 255
-52.7658 -28.5831 -0.852407  255 255 255
-51.3135 -28.6844 1.59687  255 255 255
-52.5741 -28.8839 -0.56738  255 255 255
-54.7486 -31.5827 3.71793  255 255 255
-53.118 -29.8455 -0.503002  255 255 255
-53.0535 -30.5223 -1.32282  255 255 255
-44.794 -33.373 22.9366  255 255 255
-30.4701 -25.7375 -7.64014  255 255 255
-37.9171 -29.867 -7.32183  255 255 255
-29.101 -29.4321 -3.74897  255 255 255
-32.3346 -30.5792 -1.87895  255 255 255
-31.6304 -29.996 -1.66172  255 255 255
-40.1105 -34.3523 1.56924  255 255 255
-38.6466 -41.4124 26.7143  255 255 255
-39.5741 -45.1618 23.4525  255 255 255
2.61441 -32.5207 2.64436  255 255 255
36.4932 -29.44 27.6269  255 255 255
21.8151 -33.4729 28.4138  255 255 255
32.378 -32.0143 31.3499  255 255 255
35.5835 -31.5395 30.0392  255 255 255
37.4652 -31.1427 28.21  255 255 255
35.8582 -30.9841 29.7629  255 255 255
19.5046 -37.912 28.3501  255 255 255
-25.8052 -59.7755 34.7618  255 255 255
65.6425 -37.3411 0.353513  255 255 255
65.9776 -38.2726 0.448095  255 255 255
66.2274 -37.5118 0.529121  255 255 255
66.4512 -38.2095 1.52214  255 255 255
66.7502 -39.8052 1.46717  255 255 255
25.8218 -50.4913 24.8505  255 255 255
51.9183 -50.8094 15.7364  255 255 255
-70.7055 -6.89179 -4.53033  255 255 255
-67.8482 -7.54777 -2.39719  255 255 255
-80.019 1.01204 -34.4134  255 255 255
53.9814 18.3816 -16.7048  255 255 255
-49.0521 -19.7604 23.7911  255 255 255
-48.78 -20.1379 25.3605  255 255 255
-50.3575 -19.4804 23.4055  255 255 255
-50.0933 -20.0586 22.8795  255 255 255
-79.648 -11.1886 -21.6735  255 255 255
-50.3775 -19.3765 18.1958  255 255 255
50.1528 18.8571 -32.4799  255 255 255
-44.4348 -23.9051 27.3412  255 255 255
-65.5266 -16.9642 -5.39049  255 255 255
58.3042 29.7206 -67.3682  255 255 255
-63.4566 -25.2967 -4.80348  255 255 255
-62.4486 -25.1464 -4.3735  255 255 255
-55.9792 -24.6094 -3.33758  255 255 255
-22.8055 -11.2813 -35.3272  255 255 255
60.9686 1.81202 -13.0093  255 255 255
-52.8235 -27.4001 -2.13821  255 255 255
32.2784 -7.61605 -2.96517  255 255 255
-52.2579 -30.8275 10.7842  255 255 255
-33.6203 -22.6855 -12.2025  255 255 255
-42.7746 -35.5312 26.7343  255 255 255
-40.4597 -34.9228 27.7962  255 255 255
-29.607 -23.7727 -16.9942  255 255 255
-31.7754 -25.6575 -9.34919  255 255 255
-41.0598 -24.2474 -28.0702  255 255 255
-24.1244 -22.3202 -18.9281  255 255 255
-32.2651 -29.6109 -5.26661  255 255 255
-37.9674 -33.4143 3.05543  255 255 255
-36.6499 -37.1691 31.5758  255 255 255
-38.2558 -33.7425 2.4045  255 255 255
-29.6634 -30.6272 -2.05358  255 255 255
-32.6846 -30.7352 -12.2029  255 255 255
-40.4269 -34.9023 1.88835  255 255 255
-34.8994 -34.1019 2.1034  255 255 255
-40.0163 -45.8301 22.3242  255 255 255
-38.0472 -47.0005 25.4923  255 255 255
34.9044 -36.8265 31.3024  255 255 255
34.6683 -36.6441 31.4527  255 255 255
65.2604 -30.7621 5.0279  255 255 255
66.7879 -35.9545 3.9851  255 255 255
-13.1218 -60.2695 30.1027  255 255 255
65.5019 -39.0655 1.61597  255 255 255
62.2237 -45.3627 7.32614  255 255 255
-76.7721 1.03118 -33.64  255 255 255
-47.0636 -19.1959 26.5122  255 255 255
-76.5921 -10.3402 -16.2356  255 255 255
-69.5052 -19.4381 -13.0685  255 255 255
-62.483 -23.7055 -5.17385  255 255 255
-65.0696 -23.7521 -8.7011  255 255 255
-39.8855 -29.7079 31.6786  255 255 255
-43.8044 -30.9375 24.7515  255 255 255
-53.9398 -26.1176 -1.69653  255 255 255
-32.298 -14.3306 -43.3196  255 255 255
-51.9988 -29.1508 -1.51631  255 255 255
38.4427 -5.84767 -13.2058  255 255 255
-51.1114 -33.3723 5.20005  255 255 255
-33.6969 -45.2215 14.6412  255 255 255
57.3694 -19.2059 -21.9766  255 255 255
36.5706 -30.9449 28.0738  255 255 255
-13.5872 -55.8506 27.1049  255 255 255
-26.9848 -18.1524 -24.2288  255 255 255
-50.5032 -33.2483 1.35766  255 255 255
-47.6051 -32.6211 3.46737  255 255 255
-43.9882 -32.7205 2.77619  255 255 255
-44.1963 -33.676 1.47712  255 255 255
-43.7371 -33.4577 1.80478  255 255 255
-40.4672 -41.9337 25.2398  255 255 255
37.5341 -34.2436 27.9918  255 255 255
39.5674 24.696 -34.1798  255 255 255
-30.6217 1.00578 -15.7375  255 255 255
-62.5501 -23.0726 -6.44847  255 255 255
30.6098 -32.4766 32.1548  255 255 255
-13.682 -58.6207 28.5144  255 255 255
-13.5032 -58.7051 29.3139  255 255 255
-12.9661 -59.3357 29.354  255 255 255
-14.0907 -61.0195 32.4504  255 255 255
59.267 -44.9166 7.87839  255 255 255
-64.5719 -21.4918 -4.74365  255 255 255
74.9398 26.8228 -87.3735  255 255 255
35.5199 -54.3825 25.8304  255 255 255
26.9649 36.56 -13.8173  255 255 255
46.2592 43.985 -23.9864  255 255 255
78.5238 54.2604 -39.3452  255 255 255
27.7301 36.8801 -14.6511  255 255 255
54.0841 44.4743 -27.5658  255 255 255
28.8299 36.4943 -15.4527  255 255 255
53.1358 44.5156 -27.1414  255 255 255
38.2436 39.9308 -19.8644  255 255 255
96.5586 58.8062 -49.0706  255 255 255
95.6546 58.1205 -46.3832  255 255 255
69.8846 50.8086 -36.2115  255 255 255
81.9467 54.9754 -43.1493  255 255 255
60.5742 45.6047 -29.3656  255 255 255
63.3864 48.6078 -34.2317  255 255 255
91.2501 57.8816 -46.6648  255 255 255
79.527 52.641 -40.3449  255 255 255
51.9677 44.6031 -27.923  255 255 255
91.9909 56.2362 -45.3737  255 255 255
85.1398 56.1809 -46.8891  255 255 255
24.3812 28.0013 -9.40565  255 255 255
82.476 52.4153 -42.5525  255 255 255
26.2114 33.2065 -13.7872  255 255 255
95.5079 57.724 -50.2942  255 255 255
-2.56046 24.9248 -1.356  255 255 255
35.2477 35.6735 -17.6814  255 255 255
17.3346 26.7719 -7.31644  255 255 255
26.5835 33.7483 -15.7095  255 255 255
15.8808 28.3431 -9.24967  255 255 255
10.035 28.5873 -8.94389  255 255 255
7.38649 28.315 -6.86201  255 255 255
43.0066 38.4365 -25.2185  255 255 255
42.8448 39.3294 -26.5875  255 255 255
62.7299 15.5578 2.53426  255 255 255
67.7092 48.9526 -40.525  255 255 255
23.621 32.3747 -14.3643  255 255 255
52.4907 43.9829 -32.3279  255 255 255
64.3834 13.1722 4.77285  255 255 255
11.5591 21.6226 -2.2517  255 255 255
39.7826 37.9309 -24.5215  255 255 255
63.6135 15.341 2.10368  255 255 255
85.8494 52.5314 -47.2396  255 255 255
86.0014 52.4186 -46.9325  255 255 255
68.8797 12.858 5.3779  255 255 255
41.962 36.8984 -26.2103  255 255 255
27.8855 33.272 -17.7369  255 255 255
8.35468 28.8312 -8.95277  255 255 255
22.2583 31.2245 -16.2211  255 255 255
41.4334 36.4503 -25.6689  255 255 255
70.898 9.0816 7.31355  255 255 255
18.8755 30.3532 -14.1083  255 255 255
39.3923 36.2055 -24.1937  255 255 255
66.4431 8.70611 8.27856  255 255 255
21.2536 30.9432 -14.4093  255 255 255
21.9336 31.2393 -15.3128  255 255 255
30.7505 32.5207 -17.441  255 255 255
66.0677 7.96954 7.384  255 255 255
69.6548 5.9361 9.9248  255 255 255
42.1971 37.8406 -26.1231  255 255 255
45.8445 40.1107 -29.383  255 255 255
65.3162 8.22476 9.90825  255 255 255
29.2565 33.4929 -19.5813  255 255 255
63.1092 45.2782 -38.0633  255 255 255
1.33054 26.6687 -7.44668  255 255 255
63.0084 13.583 2.05134  255 255 255
49.9616 38.3999 -30.4792  255 255 255
68.2644 7.11958 9.74017  255 255 255
-14.8486 18.3678 2.64315  255 255 255
27.9056 31.1198 -18.6342  255 255 255
31.4023 33.9603 -21.32  255 255 255
92.8482 52.2156 -49.2503  255 255 255
65.2513 -4.33197 23.7727  255 255 255
63.7446 -1.3614 19.7314  255 255 255
47.2285 40.6615 -32.919  255 255 255
66.5861 -4.81677 22.7452  255 255 255
67.4831 -5.59418 24.2426  255 255 255
70.7211 44.094 -41.329  255 255 255
62.5426 -0.842632 18.7784  255 255 255
68.8562 -6.63699 24.6011  255 255 255
68.7104 -6.22154 25.337  255 255 255
65.2249 9.07737 4.77519  255 255 255
68.3393 -8.62925 27.247  255 255 255
67.7023 -8.14632 26.129  255 255 255
21.3536 28.8822 -15.3641  255 255 255
20.3327 28.3908 -14.5788  255 255 255
18.3661 28.3817 -15.2206  255 255 255
64.3804 -3.77494 22.0303  255 255 255
64.7299 -3.79469 21.4828  255 255 255
95.4559 52.0143 -54.8549  255 255 255
20.9779 29.233 -17.0007  255 255 255
64.1919 -2.63304 20.504  255 255 255
64.8676 -3.2197 20.3507  255 255 255
68.0827 -6.20318 23.5126  255 255 255
-14.8367 17.6483 2.80201  255 255 255
22.9484 28.9197 -19.2473  255 255 255
41.4395 34.5299 -27.6644  255 255 255
71.7453 43.3484 -43.3018  255 255 255
62.4366 -3.48263 20.3352  255 255 255
63.313 -2.84802 19.3471  255 255 255
72.1802 -10.6467 29.0535  255 255 255
43.9374 34.5545 -29.4558  255 255 255
69.058 -7.302 24.8832  255 255 255
-16.3848 16.9968 3.02514  255 255 255
-15.8691 16.3754 4.12053  255 255 255
68.5612 4.60284 7.93364  255 255 255
64.6511 8.95996 1.80287  255 255 255
-9.36832 17.8614 -0.415856  255 255 255
-9.92707 17.0942 -0.398155  255 255 255
-9.73276 17.9999 -0.943852  255 255 255
-13.3397 17.7294 -0.442914  255 255 255
30.1257 31.8435 -26.0409  255 255 255
62.7554 -4.13559 18.1778  255 255 255
64.6118 -6.16885 20.7157  255 255 255
73.3168 41.9805 -46.0289  255 255 255
31.1342 28.3743 -23.2785  255 255 255
-2.27476 18.195 -4.17943  255 255 255
47.7239 34.959 -32.6287  255 255 255
-4.45312 16.8591 -1.58242  255 255 255
65.8502 5.20281 5.82429  255 255 255
61.8402 -2.65778 16.1444  255 255 255
-2.1465 18.5562 -4.80996  255 255 255
-1.82568 20.0404 -5.54867  255 255 255
-8.98582 17.4112 -1.32989  255 255 255
-4.85933 18.0576 -4.29308  255 255 255
10.6651 23.168 -14.1345  255 255 255
17.7221 23.8127 -15.7781  255 255 255
64.3841 -6.50014 19.1371  255 255 255
67.971 -9.29637 22.463  255 255 255
45.4405 34.1059 -35.1691  255 255 255
65.6787 5.45952 1.78766  255 255 255
56.5981 36.8096 -38.6147  255 255 255
65.5229 -6.05199 19.1675  255 255 255
58.1035 37.8887 -43.4876  255 255 255
19.122 24.7711 -18.9794  255 255 255
63.3783 -7.3703 18.5678  255 255 255
16.05 24.7261 -18.2493  255 255 255
64.8085 -4.70734 16.1156  255 255 255
-7.28116 17.6033 -5.99484  255 255 255
-8.95073 16.6477 -3.24595  255 255 255
-7.80499 16.6963 -3.47098  255 255 255
26.6224 27.0227 -24.3814  255 255 255
39.241 29.8219 -30.4424  255 255 255
42.7653 30.6205 -30.9459  255 255 255
-8.21719 17.8636 -6.55164  255 255 255
27.246 27.1608 -24.7144  255 255 255
65.0133 3.45926 1.00551  255 255 255
-8.70818 17.8792 -6.76004  255 255 255
68.4142 -12.7562 23.797  255 255 255
63.8681 -6.86592 18.3355  255 255 255
64.7434 -9.04907 18.8899  255 255 255
15.2632 21.6378 -16.8597  255 255 255
65.4684 -8.55236 18.9865  255 255 255
-12.1491 16.0566 -1.94829  255 255 255
66.5285 1.29506 2.91684  255 255 255
70.0137 -13.8472 26.3801  255 255 255
69.7968 -13.695 24.264  255 255 255
-1.5771 18.9508 -9.26316  255 255 255
-3.18827 18.0258 -7.14882  255 255 255
69.1976 -12.6053 23.8616  255 255 255
69.8077 -12.746 24.2401  255 255 255
-9.05483 16.0076 -4.2131  255 255 255
0.955357 19.4137 -10.8748  255 255 255
7.83322 12.3049 -1.92948  255 255 255
64.492 6.76981 -3.70882  255 255 255
63.8252 -7.73958 16.1564  255 255 255
48.5448 31.3408 -36.2588  255 255 255
61.5544 -5.15597 12.4728  255 255 255
-7.10899 15.9208 -5.57299  255 255 255
14.1275 22.3594 -17.6055  255 255 255
0.0283057 16.8377 -9.08892  255 255 255
47.2944 30.7032 -36.4973  255 255 255
65.5895 -9.93065 18.2599  255 255 255
69.9205 -14.653 25.7156  255 255 255
5.13274 18.9024 -14.0128  255 255 255
72.4636 -16.9194 28.9291  255 255 255
66.978 -0.014077 3.76854  255 255 255
-10.1351 14.2477 -2.97091  255 255 255
39.8017 26.4256 -31.3927  255 255 255
7.74688 19.6216 -14.8351  255 255 255
38.0733 28.3344 -31.6293  255 255 255
68.7859 -13.7784 22.9729  255 255 255
52.7487 30.6513 -40.437  255 255 255
